322802.869 3076148.304 1.942
322802.890 3076148.274 1.935
322802.967 3076148.199 1.922
322803.017 3076148.042 1.900
322803.028 3076147.890 1.902
322803.018 3076147.771 1.880
322803.006 3076147.711 1.913
322803.024 3076147.650 1.922
322802.946 3076147.527 1.932
322802.811 3076147.404 1.901
322802.641 3076147.320 1.895
322802.494 3076147.261 1.893
322802.402 3076147.185 1.886
322802.312 3076147.077 1.869
322802.302 3076146.975 1.880
322802.243 3076146.877 1.878
322802.154 3076146.802 1.875
322802.024 3076146.711 1.856
322801.887 3076146.662 1.886
322801.777 3076146.586 1.901
322801.726 3076146.496 1.905
322801.647 3076146.354 1.866
322801.624 3076146.245 1.877
322801.506 3076146.095 1.893
322801.365 3076145.983 1.877
322801.195 3076145.869 1.818
322801.033 3076145.760 1.847
322800.949 3076145.611 1.851
322800.839 3076145.436 1.800
322800.780 3076145.296 1.831
322800.667 3076145.156 1.846
322800.545 3076145.054 1.828
322800.404 3076144.935 1.799
322800.260 3076144.790 1.824
322800.171 3076144.641 1.804
322800.100 3076144.487 1.779
322800.024 3076144.347 1.810
322799.884 3076144.203 1.823
322799.716 3076144.088 1.793
322799.563 3076144.004 1.798
322799.419 3076143.866 1.802
322799.318 3076143.714 1.800
322799.272 3076143.587 1.783
322799.202 3076143.464 1.807
322799.087 3076143.369 1.801
322798.949 3076143.264 1.760
322798.789 3076143.180 1.759
322798.670 3076143.067 1.773
322798.603 3076142.966 1.755
322798.548 3076142.843 1.724
322798.431 3076142.683 1.740
322798.286 3076142.565 1.744
322798.124 3076142.438 1.679
322797.979 3076142.340 1.683
322797.861 3076142.207 1.701
322797.787 3076142.053 1.664
322797.748 3076141.952 1.673
322797.607 3076141.796 1.695
322797.451 3076141.684 1.669
322797.297 3076141.561 1.634
322797.141 3076141.421 1.645
322797.016 3076141.258 1.619
322796.975 3076141.124 1.610
322796.897 3076140.987 1.636
322796.763 3076140.844 1.633
322796.593 3076140.720 1.633
322796.421 3076140.619 1.607
322796.279 3076140.478 1.635
322796.182 3076140.342 1.618
322796.110 3076140.220 1.588
322796.022 3076140.085 1.616
322795.880 3076139.974 1.618
322795.715 3076139.852 1.569
322795.560 3076139.767 1.548
322795.425 3076139.609 1.524
322795.323 3076139.437 1.540
322795.255 3076139.311 1.544
322795.111 3076139.139 1.573
322794.946 3076138.991 1.558
322794.807 3076138.862 1.522
322794.642 3076138.711 1.540
322794.510 3076138.551 1.529
322794.428 3076138.383 1.490
322794.302 3076138.223 1.505
322794.151 3076138.093 1.513
322793.993 3076137.947 1.475
322793.851 3076137.822 1.473
322793.711 3076137.681 1.484
322793.611 3076137.520 1.479
322793.510 3076137.392 1.441
322793.406 3076137.235 1.481
322793.240 3076137.111 1.483
322793.063 3076136.962 1.443
322792.910 3076136.858 1.455
322792.767 3076136.714 1.474
322792.675 3076136.565 1.464
322792.613 3076136.438 1.414
322792.499 3076136.294 1.452
322792.360 3076136.194 1.440
322792.220 3076136.069 1.400
322792.054 3076135.932 1.398
322791.897 3076135.771 1.401
322791.816 3076135.624 1.394
322791.749 3076135.497 1.359
322791.649 3076135.365 1.379
322791.521 3076135.254 1.386
322791.362 3076135.148 1.325
322791.186 3076135.072 1.338
322791.052 3076134.930 1.353
322790.978 3076134.768 1.330
322790.928 3076134.640 1.305
322790.805 3076134.465 1.314
322790.657 3076134.319 1.302
322790.535 3076134.213 1.277
322790.395 3076134.079 1.290
322790.293 3076133.920 1.282
322790.215 3076133.768 1.248
322790.165 3076133.628 1.235
322790.013 3076133.462 1.244
322789.828 3076133.342 1.242
322789.664 3076133.202 1.180
322789.508 3076133.053 1.203
322789.387 3076132.894 1.183
322789.331 3076132.762 1.142
322789.202 3076132.589 1.166
322789.026 3076132.455 1.153
322788.835 3076132.356 1.102
322788.640 3076132.215 1.132
322788.522 3076132.057 1.135
322788.475 3076131.897 1.078
322788.382 3076131.745 1.096
322788.206 3076131.597 1.097
322788.015 3076131.445 1.036
322787.864 3076131.327 1.047
322787.744 3076131.176 1.049
322787.617 3076131.006 1.030
322787.531 3076130.843 1.004
322787.429 3076130.692 1.019
322787.283 3076130.568 1.009
322787.107 3076130.436 0.969
322786.974 3076130.353 0.972
322786.840 3076130.220 0.987
322786.735 3076130.089 0.967
322786.679 3076129.959 0.924
322786.560 3076129.817 0.948
322786.431 3076129.707 0.948
322786.277 3076129.587 0.925
322786.132 3076129.474 0.909
322785.991 3076129.320 0.926
322785.899 3076129.144 0.917
322785.841 3076129.011 0.886
322785.718 3076128.844 0.912
322785.553 3076128.713 0.909
322785.399 3076128.565 0.857
322785.232 3076128.417 0.880
322785.124 3076128.251 0.869
322785.036 3076128.090 0.836
322784.991 3076127.965 0.855
322784.875 3076127.822 0.866
322784.723 3076127.687 0.849
322784.561 3076127.549 0.815
322784.410 3076127.375 0.827
322784.330 3076127.194 0.819
322784.273 3076127.054 0.780
322784.162 3076126.876 0.802
322784.021 3076126.743 0.797
322783.906 3076126.585 0.749
322783.768 3076126.432 0.758
322783.657 3076126.262 0.767
322783.577 3076126.084 0.747
322783.522 3076125.953 0.736
322783.389 3076125.787 0.758
322783.199 3076125.639 0.719
322783.056 3076125.551 0.695
322782.908 3076125.425 0.714
322782.809 3076125.279 0.686
322782.753 3076125.152 0.653
322782.641 3076124.994 0.672
322782.486 3076124.870 0.676
322782.325 3076124.729 0.622
322782.165 3076124.636 0.656
322782.053 3076124.479 0.659
322781.974 3076124.334 0.646
322781.940 3076124.201 0.613
322781.833 3076124.031 0.633
322781.684 3076123.905 0.633
322781.496 3076123.755 0.559
322781.323 3076123.590 0.573
322781.185 3076123.415 0.560
322781.100 3076123.247 0.526
322780.990 3076123.087 0.562
322780.846 3076122.964 0.565
322780.661 3076122.825 0.515
322780.490 3076122.716 0.542
322780.351 3076122.572 0.537
322780.247 3076122.419 0.514
322780.185 3076122.289 0.536
322780.050 3076122.136 0.545
322779.886 3076122.009 0.538
322779.742 3076121.911 0.506
322779.572 3076121.773 0.535
322779.457 3076121.628 0.518
322779.364 3076121.498 0.490
322779.288 3076121.369 0.518
322779.156 3076121.224 0.517
322778.989 3076121.082 0.502
322778.835 3076120.982 0.467
322778.670 3076120.836 0.489
322778.558 3076120.675 0.471
322778.494 3076120.547 0.434
322778.373 3076120.387 0.460
322778.227 3076120.263 0.457
322778.078 3076120.127 0.422
322777.918 3076119.989 0.420
322777.787 3076119.827 0.424
322777.691 3076119.654 0.393
322777.618 3076119.524 0.398
322777.484 3076119.355 0.414
322777.318 3076119.205 0.401
322777.165 3076119.068 0.360
322776.996 3076118.917 0.375
322776.856 3076118.754 0.374
322776.789 3076118.639 0.345
322776.661 3076118.469 0.378
322776.503 3076118.345 0.380
322776.351 3076118.192 0.329
322776.178 3076118.047 0.348
322776.039 3076117.889 0.349
322775.930 3076117.731 0.306
322775.811 3076117.573 0.338
322775.649 3076117.425 0.342
322775.492 3076117.252 0.300
322775.311 3076117.125 0.313
322775.160 3076116.966 0.317
322775.012 3076116.789 0.288
322774.924 3076116.645 0.306
322774.785 3076116.486 0.319
322774.623 3076116.329 0.300
322774.469 3076116.216 0.282
322774.299 3076116.056 0.305
322774.155 3076115.876 0.295
322774.095 3076115.750 0.256
322773.944 3076115.569 0.290
322773.774 3076115.441 0.285
322773.621 3076115.301 0.233
322773.446 3076115.166 0.254
322773.314 3076115.003 0.247
322773.195 3076114.842 0.223
322773.099 3076114.698 0.216
322772.950 3076114.539 0.224
322772.785 3076114.389 0.209
322772.633 3076114.277 0.170
322772.497 3076114.127 0.193
322772.393 3076113.972 0.182
322772.307 3076113.819 0.131
322772.193 3076113.649 0.162
322772.049 3076113.511 0.165
322771.893 3076113.369 0.131
322771.732 3076113.249 0.117
322771.576 3076113.111 0.141
322771.458 3076112.957 0.128
322771.411 3076112.817 0.078
322771.333 3076112.652 0.092
322771.232 3076112.529 0.089
322771.114 3076112.375 0.067
322770.979 3076112.293 0.087
322770.854 3076112.136 0.085
322770.698 3076111.964 0.062
322770.654 3076111.820 0.036
322770.527 3076111.680 0.047
322770.400 3076111.575 0.048
322770.231 3076111.445 0.019
322770.065 3076111.358 0.005
322769.908 3076111.232 0.024
322769.778 3076111.083 0.008
322769.688 3076110.936 -0.035
322769.562 3076110.787 -0.001
322769.408 3076110.671 -0.010
322769.247 3076110.534 -0.052
322769.071 3076110.413 -0.034
322768.915 3076110.265 -0.028
322768.784 3076110.104 -0.063
322768.679 3076109.970 -0.058
322768.536 3076109.821 -0.035
322768.366 3076109.694 -0.050
322768.217 3076109.578 -0.082
322768.059 3076109.444 -0.053
322767.934 3076109.295 -0.069
322767.823 3076109.164 -0.091
322767.732 3076109.029 -0.084
322767.606 3076108.892 -0.075
322767.454 3076108.772 -0.083
322767.311 3076108.666 -0.120
322767.139 3076108.529 -0.103
322767.029 3076108.391 -0.114
322766.961 3076108.259 -0.149
322766.872 3076108.110 -0.130
322766.751 3076107.979 -0.127
322766.601 3076107.831 -0.138
322766.439 3076107.747 -0.153
322766.272 3076107.595 -0.140
322766.165 3076107.448 -0.160
322766.099 3076107.308 -0.195
322766.019 3076107.169 -0.178
322765.887 3076107.024 -0.171
322765.753 3076106.905 -0.173
322765.614 3076106.804 -0.207
322765.453 3076106.670 -0.186
322765.328 3076106.521 -0.198
322765.251 3076106.388 -0.234
322765.171 3076106.249 -0.216
322765.039 3076106.119 -0.209
322764.883 3076106.012 -0.211
322764.730 3076105.914 -0.260
322764.575 3076105.795 -0.237
322764.472 3076105.653 -0.248
322764.366 3076105.498 -0.288
322764.280 3076105.358 -0.273
322764.144 3076105.220 -0.258
322763.994 3076105.098 -0.281
322763.835 3076104.993 -0.294
322763.669 3076104.860 -0.277
322763.562 3076104.732 -0.289
322763.501 3076104.574 -0.340
322763.422 3076104.443 -0.329
322763.280 3076104.303 -0.322
322763.156 3076104.200 -0.332
322763.016 3076104.105 -0.377
322762.860 3076104.004 -0.364
322762.740 3076103.883 -0.358
322762.667 3076103.759 -0.361
322762.631 3076103.638 -0.398
322762.531 3076103.515 -0.374
322762.385 3076103.409 -0.373
322762.259 3076103.318 -0.414
322762.137 3076103.220 -0.408
322762.060 3076103.108 -0.403
322761.990 3076102.982 -0.435
322761.940 3076102.885 -0.436
322761.809 3076102.781 -0.437
322761.673 3076102.713 -0.455
322761.584 3076102.615 -0.487
322761.479 3076102.486 -0.493
322761.408 3076102.362 -0.506
322761.346 3076102.244 -0.520
322761.287 3076102.137 -0.461
322761.164 3076102.044 -0.457
322761.037 3076101.982 -0.460
322760.911 3076101.940 -0.468
322760.841 3076101.956 -0.468
322760.767 3076101.911 -0.463
322760.718 3076101.856 -0.467
322760.697 3076101.815 -0.475
322760.695 3076101.777 -0.484
322760.699 3076101.753 -0.478
