322983.496 3075974.557 2.761
322983.489 3075974.557 2.763
322983.474 3075974.549 2.760
322983.454 3075974.530 2.764
322983.425 3075974.514 2.757
322983.374 3075974.487 2.752
322983.301 3075974.449 2.747
322983.233 3075974.448 2.728
322983.173 3075974.428 2.750
322983.084 3075974.368 2.757
322983.012 3075974.301 2.729
322982.972 3075974.207 2.733
322982.995 3075974.166 2.737
322982.991 3075974.090 2.752
322982.948 3075974.013 2.759
322982.883 3075973.941 2.747
322982.787 3075973.866 2.749
322982.704 3075973.753 2.749
322982.677 3075973.643 2.709
322982.694 3075973.563 2.629
322982.647 3075973.449 2.665
322982.562 3075973.368 2.654
322982.448 3075973.250 2.646
322982.315 3075973.151 2.629
322982.203 3075973.019 2.645
322982.125 3075972.920 2.659
322982.121 3075972.833 2.627
322982.125 3075972.753 2.623
322982.089 3075972.660 2.630
322982.030 3075972.586 2.635
322981.936 3075972.553 2.641
322981.854 3075972.496 2.651
322981.820 3075972.454 2.651
322981.839 3075972.422 2.634
322981.860 3075972.384 2.609
322981.858 3075972.342 2.602
322981.835 3075972.306 2.604
322981.783 3075972.261 2.595
322981.707 3075972.242 2.586
322981.578 3075972.196 2.572
322981.452 3075972.151 2.580
322981.353 3075972.131 2.593
322981.283 3075972.156 2.576
322981.259 3075972.164 2.566
322981.264 3075972.138 2.572
322981.264 3075972.089 2.591
322981.265 3075972.011 2.602
322981.262 3075971.909 2.592
322981.233 3075971.788 2.609
322981.245 3075971.688 2.627
322981.252 3075971.622 2.628
322981.218 3075971.559 2.624
322981.144 3075971.489 2.615
322981.049 3075971.412 2.615
322980.969 3075971.330 2.663
322980.899 3075971.268 2.675
322980.858 3075971.205 2.683
322980.849 3075971.124 2.679
322980.869 3075971.053 2.662
322980.813 3075970.978 2.649
322980.794 3075970.929 2.655
322980.769 3075970.882 2.646
322980.713 3075970.864 2.633
322980.640 3075970.822 2.628
322980.557 3075970.771 2.644
322980.478 3075970.729 2.666
322980.443 3075970.691 2.660
322980.466 3075970.664 2.612
322980.515 3075970.606 2.557
322980.497 3075970.512 2.542
322980.510 3075970.453 2.545
322980.537 3075970.402 2.556
322980.507 3075970.361 2.553
322980.452 3075970.312 2.558
322980.379 3075970.285 2.546
322980.240 3075970.320 2.551
322980.146 3075970.298 2.529
322980.107 3075970.240 2.470
322980.124 3075970.168 2.389
322980.105 3075970.104 2.388
322980.076 3075970.026 2.380
322980.020 3075969.986 2.334
322979.963 3075969.947 2.283
322979.902 3075969.887 2.260
322979.842 3075969.837 2.260
322979.802 3075969.770 2.240
322979.723 3075969.677 2.203
322979.665 3075969.619 2.192
322979.549 3075969.573 2.113
322979.479 3075969.506 2.115
322979.414 3075969.447 2.120
322979.370 3075969.376 2.132
322979.358 3075969.295 2.116
322979.371 3075969.250 2.095
322979.371 3075969.190 2.089
322979.364 3075969.151 2.091
322979.341 3075969.119 2.104
322979.323 3075969.096 2.116
322979.307 3075969.086 2.119
322979.270 3075969.117 2.117
322979.266 3075969.128 2.112
322979.270 3075969.142 2.102
322979.276 3075969.145 2.099
322979.284 3075969.146 2.097
322979.255 3075969.133 2.111
322979.223 3075969.183 2.081
322979.198 3075969.181 2.079
322979.175 3075969.162 2.077
322979.163 3075969.152 2.078
322979.148 3075969.147 2.076
322979.138 3075969.147 2.071
322979.134 3075969.143 2.068
322979.132 3075969.132 2.070
322979.144 3075969.110 2.080
322979.183 3075969.079 2.079
322979.218 3075969.025 2.082
322979.232 3075968.952 2.085
322979.237 3075968.885 2.088
322979.255 3075968.861 2.090
322979.225 3075968.822 2.092
322979.166 3075968.801 2.081
322979.045 3075968.798 2.043
322978.925 3075968.728 2.020
322978.833 3075968.676 2.021
322978.794 3075968.612 2.009
322978.848 3075968.578 1.969
322978.872 3075968.522 1.970
322978.896 3075968.494 1.978
322978.858 3075968.538 1.982
322978.797 3075968.590 1.976
322978.776 3075968.635 1.973
322978.769 3075968.676 1.962
322978.777 3075968.703 1.949
322978.782 3075968.721 1.938
322978.774 3075968.715 1.935
322978.778 3075968.713 1.935
322978.803 3075968.658 1.958
322978.832 3075968.597 1.963
322978.830 3075968.551 1.949
322978.792 3075968.562 1.941
322978.732 3075968.649 1.916
322978.660 3075968.725 1.918
322978.573 3075968.763 1.928
322978.560 3075968.731 1.890
322978.495 3075968.758 1.843
322978.423 3075968.788 1.819
322978.316 3075968.855 1.772
322978.228 3075968.921 1.679
322978.051 3075968.987 1.716
322977.970 3075969.015 1.702
322977.923 3075968.998 1.672
322977.862 3075968.996 1.620
322977.753 3075969.020 1.622
322977.625 3075969.050 1.638
322977.505 3075969.123 1.630
322977.398 3075969.188 1.639
322977.308 3075969.261 1.623
322977.317 3075969.266 1.621
322977.318 3075969.263 1.620
322977.336 3075969.256 1.620
322977.347 3075969.246 1.624
322977.346 3075969.242 1.624
322977.342 3075969.240 1.623
322977.339 3075969.238 1.624
322977.346 3075969.237 1.629
322977.347 3075969.237 1.627
322977.349 3075969.235 1.623
322977.343 3075969.237 1.625
322977.345 3075969.238 1.623
322977.346 3075969.241 1.620
322977.323 3075969.240 1.624
322977.280 3075969.205 1.625
322977.260 3075969.150 1.629
322977.277 3075969.083 1.622
322977.269 3075969.021 1.601
322977.252 3075968.950 1.606
322977.198 3075968.895 1.590
322977.155 3075968.884 1.570
322977.077 3075968.820 1.579
322977.030 3075968.766 1.585
322977.035 3075968.705 1.571
322977.085 3075968.643 1.553
322977.086 3075968.562 1.554
322977.079 3075968.504 1.563
322977.047 3075968.469 1.554
322976.997 3075968.451 1.523
322976.955 3075968.404 1.527
322976.896 3075968.366 1.538
322976.881 3075968.361 1.546
322976.860 3075968.364 1.536
322976.877 3075968.367 1.535
322976.905 3075968.341 1.535
322976.908 3075968.319 1.537
322976.854 3075968.278 1.536
322976.768 3075968.250 1.516
322976.660 3075968.182 1.513
322976.559 3075968.108 1.525
322976.492 3075968.046 1.526
322976.456 3075967.992 1.526
322976.406 3075967.889 1.543
322976.268 3075967.834 1.524
322976.066 3075967.789 1.506
322975.975 3075967.805 1.516
322975.946 3075967.803 1.529
322976.003 3075967.814 1.541
322976.049 3075967.778 1.560
322975.978 3075967.715 1.553
322975.895 3075967.706 1.536
322975.763 3075967.609 1.574
322975.689 3075967.506 1.563
322975.716 3075967.425 1.534
322975.659 3075967.310 1.538
322975.597 3075967.149 1.544
322975.523 3075966.998 1.515
322975.489 3075966.805 1.525
322975.518 3075966.641 1.536
322975.596 3075966.558 1.523
322975.680 3075966.555 1.534
322975.797 3075966.424 1.529
322976.158 3075966.225 1.535
322976.233 3075966.216 1.528
322976.268 3075966.095 1.529
322976.210 3075966.062 1.499
322976.203 3075966.049 1.490
322976.158 3075966.013 1.489
322976.096 3075965.942 1.484
322976.085 3075965.882 1.491
322976.091 3075965.805 1.468
322976.068 3075965.719 1.475
322976.002 3075965.590 1.483
322975.892 3075965.489 1.456
322975.789 3075965.416 1.473
322975.659 3075965.311 1.471
322975.595 3075965.183 1.450
322975.603 3075965.081 1.427
322975.521 3075964.923 1.464
322975.411 3075964.784 1.452
322975.295 3075964.711 1.437
322975.186 3075964.580 1.460
322975.085 3075964.469 1.460
322975.062 3075964.366 1.413
322975.009 3075964.259 1.429
322974.946 3075964.156 1.438
322974.827 3075964.054 1.402
322974.701 3075963.964 1.400
322974.577 3075963.857 1.428
322974.497 3075963.750 1.432
322974.485 3075963.638 1.401
322974.415 3075963.524 1.414
322974.350 3075963.437 1.428
322974.240 3075963.368 1.405
322974.119 3075963.296 1.379
322974.004 3075963.208 1.400
322973.908 3075963.120 1.404
322973.840 3075963.000 1.399
322973.748 3075962.873 1.403
322973.699 3075962.743 1.393
322973.585 3075962.628 1.374
322973.447 3075962.557 1.365
322973.269 3075962.428 1.379
322973.195 3075962.294 1.332
322973.133 3075962.165 1.347
322973.006 3075962.026 1.351
322972.852 3075961.930 1.309
322972.700 3075961.813 1.343
322972.541 3075961.703 1.339
322972.471 3075961.584 1.300
322972.429 3075961.479 1.283
322972.289 3075961.351 1.303
322972.142 3075961.255 1.277
322972.003 3075961.169 1.285
322971.845 3075961.055 1.297
322971.740 3075960.937 1.286
322971.694 3075960.814 1.248
322971.602 3075960.673 1.263
322971.487 3075960.536 1.256
322971.347 3075960.443 1.211
322971.217 3075960.303 1.255
322971.090 3075960.177 1.255
322971.037 3075960.048 1.211
322970.992 3075959.931 1.204
322970.860 3075959.773 1.211
322970.720 3075959.668 1.171
322970.572 3075959.561 1.181
322970.421 3075959.432 1.192
322970.351 3075959.299 1.154
322970.276 3075959.172 1.161
322970.150 3075959.039 1.172
322970.010 3075958.945 1.137
322969.866 3075958.848 1.134
322969.708 3075958.736 1.153
322969.609 3075958.619 1.122
322969.576 3075958.517 1.083
322969.444 3075958.372 1.113
322969.319 3075958.256 1.103
322969.192 3075958.168 1.059
322969.051 3075958.044 1.092
322968.936 3075957.935 1.092
322968.858 3075957.809 1.047
322968.760 3075957.678 1.044
322968.626 3075957.528 1.061
322968.482 3075957.409 1.012
322968.330 3075957.269 1.041
322968.177 3075957.146 1.042
322968.075 3075957.001 0.980
322967.987 3075956.863 0.989
322967.841 3075956.702 0.992
322967.690 3075956.567 0.942
322967.549 3075956.441 0.959
322967.371 3075956.285 0.970
322967.263 3075956.132 0.920
322967.142 3075955.999 0.943
322966.988 3075955.843 0.940
322966.814 3075955.725 0.894
322966.657 3075955.589 0.929
322966.479 3075955.450 0.920
322966.370 3075955.293 0.876
322966.263 3075955.156 0.894
322966.116 3075955.009 0.887
322965.962 3075954.888 0.835
322965.802 3075954.745 0.893
322965.640 3075954.598 0.887
322965.545 3075954.456 0.855
322965.433 3075954.313 0.874
322965.311 3075954.180 0.879
322965.155 3075954.056 0.828
322965.003 3075953.916 0.870
322964.832 3075953.790 0.865
322964.725 3075953.646 0.808
322964.622 3075953.523 0.820
322964.495 3075953.380 0.819
322964.345 3075953.259 0.769
322964.236 3075953.145 0.791
322964.094 3075953.037 0.783
322963.968 3075952.898 0.742
322963.884 3075952.781 0.745
322963.746 3075952.633 0.748
322963.603 3075952.523 0.723
322963.477 3075952.413 0.730
322963.318 3075952.298 0.745
322963.193 3075952.155 0.720
322963.112 3075952.039 0.694
322962.955 3075951.884 0.709
322962.800 3075951.761 0.681
322962.662 3075951.653 0.672
322962.504 3075951.490 0.700
322962.368 3075951.359 0.674
322962.256 3075951.230 0.635
322962.119 3075951.078 0.652
322961.978 3075950.942 0.627
322961.836 3075950.819 0.603
322961.634 3075950.651 0.646
322961.472 3075950.487 0.617
322961.397 3075950.343 0.599
322961.246 3075950.148 0.621
322961.105 3075949.999 0.603
322960.968 3075949.869 0.599
322960.795 3075949.702 0.620
322960.661 3075949.532 0.594
322960.591 3075949.384 0.605
322960.464 3075949.184 0.623
322960.326 3075949.025 0.615
322960.179 3075948.908 0.631
322960.026 3075948.776 0.667
322959.881 3075948.648 0.673
322959.783 3075948.494 0.651
322959.686 3075948.319 0.698
322959.623 3075948.177 0.712
322959.510 3075948.032 0.703
322959.361 3075947.938 0.702
322959.210 3075947.803 0.740
322959.088 3075947.688 0.733
322959.021 3075947.554 0.696
322958.938 3075947.410 0.736
322958.830 3075947.274 0.752
322958.692 3075947.149 0.727
322958.531 3075947.022 0.766
322958.391 3075946.901 0.790
322958.284 3075946.759 0.767
322958.270 3075946.647 0.727
322958.173 3075946.474 0.718
322958.092 3075946.347 0.731
322957.920 3075946.244 0.668
322957.736 3075946.129 0.648
322957.547 3075945.973 0.646
322957.442 3075945.827 0.542
322957.321 3075945.698 0.581
322957.146 3075945.571 0.506
322956.981 3075945.434 0.452
322956.797 3075945.269 0.475
322956.684 3075945.088 0.407
322956.595 3075944.947 0.407
322956.453 3075944.792 0.389
322956.286 3075944.667 0.334
322956.122 3075944.516 0.366
322955.981 3075944.359 0.338
322955.897 3075944.228 0.302
322955.778 3075944.071 0.327
322955.609 3075943.942 0.288
322955.475 3075943.824 0.286
322955.300 3075943.676 0.299
322955.172 3075943.520 0.266
322955.079 3075943.379 0.255
322954.933 3075943.229 0.256
322954.779 3075943.125 0.213
322954.633 3075943.004 0.239
322954.460 3075942.892 0.246
322954.319 3075942.766 0.210
322954.212 3075942.660 0.213
322954.052 3075942.541 0.209
322953.883 3075942.442 0.168
322953.738 3075942.340 0.189
322953.534 3075942.218 0.200
322953.402 3075942.075 0.169
322953.329 3075941.953 0.151
322953.196 3075941.798 0.162
322953.033 3075941.661 0.116
322952.875 3075941.518 0.142
322952.668 3075941.362 0.144
322952.524 3075941.196 0.098
322952.432 3075941.072 0.099
322952.308 3075940.911 0.098
322952.131 3075940.758 0.052
322951.960 3075940.604 0.090
322951.797 3075940.463 0.081
322951.685 3075940.312 0.030
322951.597 3075940.152 0.046
322951.465 3075940.000 0.036
322951.312 3075939.877 -0.001
322951.148 3075939.724 0.044
322951.026 3075939.593 0.026
322950.954 3075939.456 -0.022
322950.842 3075939.302 0.001
322950.706 3075939.155 0.001
322950.564 3075939.016 -0.047
322950.440 3075938.862 -0.001
322950.291 3075938.727 -0.010
322950.187 3075938.555 -0.055
322950.101 3075938.413 -0.032
322949.975 3075938.242 -0.025
322949.828 3075938.089 -0.080
322949.707 3075937.939 -0.035
322949.545 3075937.785 -0.036
322949.432 3075937.624 -0.089
322949.350 3075937.502 -0.069
322949.234 3075937.342 -0.061
322949.097 3075937.209 -0.104
322948.967 3075937.079 -0.068
322948.813 3075936.951 -0.058
322948.693 3075936.832 -0.090
322948.624 3075936.725 -0.097
322948.519 3075936.590 -0.089
322948.397 3075936.469 -0.116
322948.264 3075936.369 -0.107
322948.093 3075936.244 -0.079
322947.955 3075936.101 -0.099
322947.905 3075935.959 -0.125
322947.801 3075935.793 -0.105
322947.687 3075935.635 -0.104
322947.562 3075935.523 -0.154
322947.427 3075935.366 -0.112
322947.322 3075935.240 -0.116
322947.246 3075935.108 -0.165
322947.178 3075934.977 -0.165
322947.077 3075934.816 -0.141
322946.942 3075934.674 -0.177
322946.814 3075934.554 -0.156
322946.649 3075934.424 -0.140
322946.538 3075934.294 -0.181
322946.465 3075934.199 -0.196
322946.359 3075934.057 -0.179
322946.221 3075933.945 -0.217
322946.086 3075933.856 -0.204
322945.909 3075933.728 -0.178
322945.791 3075933.597 -0.196
322945.767 3075933.478 -0.239
322945.679 3075933.319 -0.213
322945.591 3075933.175 -0.203
322945.470 3075933.055 -0.242
322945.329 3075932.942 -0.246
322945.208 3075932.808 -0.231
322945.120 3075932.675 -0.266
322945.116 3075932.577 -0.308
322945.033 3075932.409 -0.270
322944.932 3075932.275 -0.303
322944.780 3075932.143 -0.313
322944.622 3075931.966 -0.274
322944.527 3075931.810 -0.295
322944.515 3075931.684 -0.334
322944.465 3075931.526 -0.310
322944.393 3075931.392 -0.320
322944.284 3075931.284 -0.347
322944.162 3075931.139 -0.316
322944.064 3075931.023 -0.326
322944.032 3075930.901 -0.359
322943.980 3075930.771 -0.366
322943.898 3075930.627 -0.360
322943.772 3075930.537 -0.398
322943.659 3075930.427 -0.379
322943.559 3075930.318 -0.372
322943.531 3075930.200 -0.383
322943.539 3075930.110 -0.412
322943.501 3075929.993 -0.414
322943.459 3075929.892 -0.407
322943.369 3075929.800 -0.410
322943.245 3075929.719 -0.405
322943.155 3075929.648 -0.396
322943.144 3075929.578 -0.413
322943.169 3075929.497 -0.424
322943.172 3075929.389 -0.420
322943.130 3075929.305 -0.415
322942.990 3075929.223 -0.433
322942.821 3075929.091 -0.435
322942.751 3075928.952 -0.436
