323147.318 3075838.135 1.664
323147.246 3075838.046 1.664
323147.078 3075838.030 1.664
323146.951 3075837.976 1.665
323146.846 3075837.883 1.666
323146.848 3075837.782 1.666
323146.829 3075837.720 1.666
323146.696 3075837.622 1.664
323146.526 3075837.522 1.664
323146.379 3075837.493 1.663
323146.271 3075837.382 1.660
323146.201 3075837.238 1.656
323146.213 3075837.123 1.654
323146.211 3075837.040 1.651
323146.090 3075836.907 1.644
323145.940 3075836.804 1.637
323145.829 3075836.738 1.633
323145.725 3075836.600 1.629
323145.659 3075836.442 1.627
323145.670 3075836.340 1.626
323145.595 3075836.219 1.624
323145.449 3075836.097 1.616
323145.309 3075835.987 1.603
323145.177 3075835.898 1.594
323145.070 3075835.773 1.590
323144.995 3075835.638 1.590
323144.947 3075835.529 1.592
323144.822 3075835.406 1.596
323144.653 3075835.275 1.600
323144.531 3075835.236 1.605
323144.398 3075835.132 1.611
323144.307 3075835.009 1.614
323144.241 3075834.881 1.615
323144.232 3075834.782 1.614
323144.129 3075834.677 1.610
323143.991 3075834.589 1.600
323143.867 3075834.521 1.588
323143.731 3075834.415 1.575
323143.603 3075834.278 1.566
323143.512 3075834.155 1.564
323143.423 3075834.041 1.564
323143.278 3075833.945 1.561
323143.113 3075833.820 1.555
323142.949 3075833.743 1.553
323142.817 3075833.625 1.554
323142.721 3075833.477 1.557
323142.694 3075833.373 1.560
323142.600 3075833.265 1.564
323142.470 3075833.186 1.563
323142.331 3075833.060 1.554
323142.190 3075832.974 1.551
323142.055 3075832.862 1.552
323141.940 3075832.743 1.553
323141.925 3075832.631 1.554
323141.843 3075832.516 1.552
323141.720 3075832.418 1.547
323141.563 3075832.292 1.539
323141.418 3075832.212 1.536
323141.308 3075832.084 1.535
323141.240 3075831.941 1.533
323141.230 3075831.836 1.532
323141.145 3075831.701 1.530
323141.005 3075831.592 1.523
323140.862 3075831.471 1.512
323140.729 3075831.386 1.503
323140.630 3075831.249 1.496
323140.543 3075831.093 1.492
323140.529 3075830.994 1.492
323140.429 3075830.877 1.493
323140.288 3075830.766 1.492
323140.135 3075830.669 1.489
323140.005 3075830.585 1.486
323139.909 3075830.464 1.483
323139.838 3075830.343 1.482
323139.832 3075830.238 1.481
323139.775 3075830.123 1.481
323139.681 3075830.040 1.482
323139.570 3075829.989 1.483
323139.459 3075829.918 1.484
323139.347 3075829.846 1.483
323139.245 3075829.752 1.480
323139.184 3075829.636 1.477
323139.153 3075829.516 1.475
323139.137 3075829.398 1.473
323139.040 3075829.319 1.472
323138.898 3075829.249 1.470
323138.745 3075829.166 1.466
323138.603 3075829.048 1.459
323138.501 3075828.903 1.457
323138.464 3075828.781 1.458
323138.390 3075828.661 1.459
323138.243 3075828.557 1.456
323138.090 3075828.413 1.448
323137.923 3075828.297 1.444
323137.805 3075828.166 1.440
323137.726 3075828.020 1.436
323137.733 3075827.884 1.435
323137.683 3075827.760 1.436
323137.578 3075827.662 1.439
323137.441 3075827.579 1.440
323137.293 3075827.511 1.438
323137.154 3075827.413 1.431
323137.059 3075827.282 1.424
323137.003 3075827.107 1.423
323137.017 3075827.000 1.424
323136.911 3075826.872 1.429
323136.779 3075826.766 1.426
323136.637 3075826.656 1.412
323136.503 3075826.558 1.397
323136.406 3075826.434 1.390
323136.329 3075826.294 1.387
323136.353 3075826.202 1.386
323136.267 3075826.070 1.384
323136.113 3075825.932 1.380
323135.973 3075825.886 1.377
323135.845 3075825.773 1.372
323135.765 3075825.597 1.365
323135.728 3075825.452 1.358
323135.616 3075825.318 1.346
323135.456 3075825.186 1.334
323135.317 3075825.120 1.329
323135.222 3075825.004 1.327
323135.176 3075824.862 1.327
323135.186 3075824.755 1.326
323135.128 3075824.640 1.325
323135.006 3075824.555 1.323
323134.846 3075824.499 1.318
323134.724 3075824.468 1.312
323134.640 3075824.369 1.304
323134.595 3075824.245 1.296
323134.519 3075824.110 1.287
323134.469 3075823.987 1.283
323134.365 3075823.879 1.279
323134.232 3075823.784 1.270
323134.094 3075823.693 1.257
323133.962 3075823.593 1.245
323133.860 3075823.473 1.231
323133.760 3075823.334 1.219
323133.718 3075823.213 1.213
323133.631 3075823.097 1.208
323133.503 3075823.011 1.202
323133.337 3075822.921 1.189
323133.174 3075822.844 1.175
323133.029 3075822.730 1.161
323132.939 3075822.603 1.151
323132.878 3075822.481 1.144
323132.839 3075822.377 1.140
323132.713 3075822.266 1.133
323132.554 3075822.153 1.120
323132.411 3075822.078 1.109
323132.298 3075821.986 1.099
323132.265 3075821.868 1.093
323132.189 3075821.719 1.087
323132.186 3075821.612 1.084
323132.056 3075821.468 1.081
323131.903 3075821.364 1.077
323131.775 3075821.267 1.069
323131.669 3075821.157 1.055
323131.606 3075821.021 1.041
323131.553 3075820.861 1.027
323131.509 3075820.728 1.018
323131.359 3075820.605 1.008
323131.169 3075820.514 0.993
323131.072 3075820.423 0.983
323130.927 3075820.310 0.974
323130.814 3075820.200 0.966
323130.750 3075820.089 0.960
323130.693 3075819.962 0.957
323130.648 3075819.850 0.957
323130.555 3075819.757 0.958
323130.438 3075819.697 0.957
323130.279 3075819.611 0.949
323130.131 3075819.558 0.940
323130.001 3075819.447 0.929
323129.895 3075819.283 0.922
323129.867 3075819.169 0.921
323129.765 3075819.037 0.918
323129.624 3075818.931 0.906
323129.482 3075818.821 0.885
323129.342 3075818.710 0.870
323129.228 3075818.575 0.860
323129.117 3075818.412 0.854
323129.067 3075818.279 0.855
323128.961 3075818.165 0.858
323128.809 3075818.087 0.858
323128.652 3075817.978 0.849
323128.492 3075817.886 0.842
323128.351 3075817.764 0.835
323128.242 3075817.617 0.836
323128.209 3075817.512 0.839
323128.111 3075817.407 0.845
323127.978 3075817.338 0.849
323127.827 3075817.250 0.849
323127.678 3075817.161 0.846
323127.563 3075817.048 0.845
323127.473 3075816.926 0.843
323127.446 3075816.813 0.842
323127.392 3075816.705 0.842
323127.281 3075816.614 0.841
323127.112 3075816.499 0.831
323126.972 3075816.422 0.824
323126.836 3075816.311 0.819
323126.743 3075816.174 0.817
323126.724 3075816.064 0.817
323126.662 3075815.951 0.816
323126.538 3075815.835 0.812
323126.403 3075815.693 0.804
323126.267 3075815.609 0.800
323126.155 3075815.503 0.796
323126.070 3075815.388 0.794
323126.003 3075815.269 0.792
323126.004 3075815.172 0.791
323125.948 3075815.061 0.790
323125.851 3075814.971 0.788
323125.721 3075814.889 0.781
323125.595 3075814.813 0.775
323125.465 3075814.738 0.770
323125.367 3075814.624 0.765
323125.303 3075814.487 0.759
323125.272 3075814.343 0.754
323125.197 3075814.210 0.748
323125.057 3075814.107 0.736
323124.906 3075813.968 0.716
323124.783 3075813.871 0.705
323124.676 3075813.747 0.694
323124.635 3075813.612 0.685
323124.596 3075813.465 0.678
323124.557 3075813.353 0.673
323124.424 3075813.241 0.669
323124.258 3075813.145 0.657
323124.121 3075813.033 0.637
323123.992 3075812.932 0.618
323123.924 3075812.812 0.606
323123.842 3075812.670 0.598
323123.785 3075812.552 0.593
323123.668 3075812.429 0.591
323123.523 3075812.302 0.587
323123.379 3075812.213 0.583
323123.246 3075812.090 0.580
323123.109 3075811.926 0.588
323123.081 3075811.800 0.596
323123.002 3075811.670 0.611
323122.883 3075811.571 0.626
323122.751 3075811.468 0.638
323122.618 3075811.385 0.645
323122.502 3075811.273 0.651
323122.405 3075811.144 0.657
323122.382 3075811.032 0.660
323122.308 3075810.915 0.664
323122.192 3075810.830 0.667
323122.063 3075810.731 0.668
323121.927 3075810.655 0.668
323121.827 3075810.540 0.669
323121.749 3075810.395 0.673
323121.748 3075810.286 0.675
323121.647 3075810.174 0.682
323121.494 3075810.074 0.692
323121.379 3075810.034 0.695
323121.272 3075809.932 0.693
323121.213 3075809.813 0.690
323121.214 3075809.711 0.687
323121.151 3075809.601 0.680
323121.042 3075809.507 0.669
323120.914 3075809.428 0.655
323120.792 3075809.351 0.641
323120.695 3075809.247 0.629
323120.625 3075809.134 0.622
323120.630 3075809.048 0.619
323120.553 3075808.942 0.611
323120.443 3075808.870 0.601
323120.330 3075808.809 0.590
323120.227 3075808.789 0.580
323120.150 3075808.714 0.570
323120.121 3075808.623 0.562
323120.096 3075808.539 0.556
323120.061 3075808.453 0.548
323119.934 3075808.369 0.531
323119.793 3075808.305 0.514
323119.687 3075808.283 0.503
323119.586 3075808.236 0.493
323119.521 3075808.153 0.484
323119.504 3075808.065 0.478
323119.489 3075807.997 0.474
323119.466 3075807.938 0.470
323119.368 3075807.892 0.464
323119.252 3075807.873 0.460
323119.146 3075807.869 0.456
323119.039 3075807.896 0.454
323118.944 3075807.856 0.449
323118.897 3075807.778 0.445
323118.874 3075807.680 0.440
323118.869 3075807.604 0.437
323118.822 3075807.520 0.430
323118.739 3075807.444 0.423
323118.625 3075807.367 0.414
323118.527 3075807.321 0.407
323118.439 3075807.243 0.399
323118.392 3075807.143 0.394
323118.347 3075807.015 0.390
323118.350 3075806.922 0.388
323118.259 3075806.814 0.383
323118.119 3075806.722 0.377
323118.006 3075806.655 0.371
323117.904 3075806.588 0.367
323117.831 3075806.496 0.363
323117.801 3075806.396 0.361
323117.793 3075806.304 0.360
323117.770 3075806.217 0.358
323117.716 3075806.149 0.356
323117.654 3075806.099 0.353
323117.545 3075806.031 0.346
323117.434 3075805.967 0.337
323117.342 3075805.884 0.327
323117.272 3075805.776 0.319
323117.223 3075805.645 0.312
323117.210 3075805.550 0.308
323117.123 3075805.431 0.299
323117.007 3075805.320 0.287
323116.919 3075805.264 0.279
323116.833 3075805.163 0.270
323116.786 3075805.042 0.264
323116.755 3075804.942 0.259
323116.680 3075804.829 0.252
323116.588 3075804.727 0.245
323116.506 3075804.660 0.240
323116.437 3075804.598 0.238
323116.390 3075804.514 0.236
323116.383 3075804.430 0.235
323116.389 3075804.335 0.233
323116.417 3075804.243 0.232
323116.386 3075804.154 0.230
323116.310 3075804.100 0.226
323116.196 3075804.045 0.218
323116.114 3075804.009 0.211
323116.028 3075803.920 0.203
323115.978 3075803.806 0.197
323115.937 3075803.712 0.193
323115.878 3075803.614 0.189
323115.767 3075803.532 0.183
323115.636 3075803.443 0.174
323115.515 3075803.389 0.165
323115.409 3075803.285 0.156
323115.338 3075803.144 0.148
323115.292 3075803.025 0.144
323115.220 3075802.908 0.138
323115.092 3075802.826 0.131
323114.943 3075802.748 0.123
323114.824 3075802.705 0.115
323114.732 3075802.593 0.106
323114.658 3075802.462 0.100
323114.635 3075802.360 0.097
323114.524 3075802.259 0.091
323114.375 3075802.188 0.084
323114.251 3075802.152 0.077
323114.147 3075802.096 0.072
323114.087 3075802.010 0.068
323114.057 3075801.915 0.067
323114.077 3075801.860 0.066
323113.975 3075801.777 0.061
323113.845 3075801.732 0.056
323113.769 3075801.729 0.053
323113.704 3075801.675 0.049
323113.716 3075801.613 0.048
323113.662 3075801.570 0.046
323113.556 3075801.539 0.043
323113.421 3075801.535 0.039
323113.306 3075801.543 0.036
323113.188 3075801.500 0.031
323113.092 3075801.425 0.026
323113.048 3075801.335 0.023
323113.018 3075801.273 0.021
323112.945 3075801.208 0.019
323112.852 3075801.143 0.017
323112.725 3075801.069 0.014
323112.603 3075801.003 0.008
323112.509 3075800.886 0.001
323112.439 3075800.749 -0.004
323112.418 3075800.646 -0.006
323112.347 3075800.528 -0.010
323112.237 3075800.418 -0.015
323112.126 3075800.308 -0.021
323112.019 3075800.190 -0.029
323111.934 3075800.048 -0.037
323111.859 3075799.903 -0.044
323111.817 3075799.792 -0.047
323111.732 3075799.668 -0.052
323111.606 3075799.556 -0.059
323111.478 3075799.477 -0.067
323111.356 3075799.356 -0.075
323111.286 3075799.232 -0.078
323111.238 3075799.111 -0.079
323111.195 3075799.010 -0.080
323111.100 3075798.904 -0.083
323110.962 3075798.793 -0.091
323110.850 3075798.713 -0.099
323110.747 3075798.610 -0.105
323110.681 3075798.478 -0.107
323110.645 3075798.349 -0.107
323110.625 3075798.255 -0.106
323110.522 3075798.158 -0.103
323110.380 3075798.076 -0.102
323110.267 3075798.021 -0.107
323110.142 3075797.928 -0.117
323110.053 3075797.812 -0.124
323110.006 3075797.711 -0.126
323109.943 3075797.624 -0.126
323109.832 3075797.542 -0.126
323109.686 3075797.437 -0.126
323109.562 3075797.377 -0.129
323109.457 3075797.258 -0.135
323109.401 3075797.118 -0.140
323109.363 3075797.005 -0.143
323109.320 3075796.905 -0.145
323109.202 3075796.819 -0.148
323109.050 3075796.732 -0.151
323108.900 3075796.688 -0.155
323108.782 3075796.585 -0.159
323108.708 3075796.472 -0.159
323108.693 3075796.392 -0.159
323108.579 3075796.314 -0.159
323108.411 3075796.242 -0.159
323108.242 3075796.184 -0.164
323108.099 3075796.094 -0.172
323108.007 3075795.971 -0.178
323107.955 3075795.833 -0.180
323107.899 3075795.715 -0.180
323107.788 3075795.599 -0.181
323107.653 3075795.471 -0.182
323107.544 3075795.379 -0.185
323107.445 3075795.246 -0.190
323107.371 3075795.097 -0.194
323107.348 3075794.971 -0.196
323107.309 3075794.854 -0.198
323107.216 3075794.749 -0.200
323107.082 3075794.653 -0.203
323106.951 3075794.590 -0.209
323106.844 3075794.497 -0.216
323106.778 3075794.390 -0.221
323106.738 3075794.281 -0.224
323106.763 3075794.189 -0.225
323106.723 3075794.106 -0.228
323106.650 3075794.040 -0.230
323106.537 3075794.002 -0.234
323106.393 3075793.934 -0.240
323106.272 3075793.885 -0.244
323106.202 3075793.816 -0.246
323106.182 3075793.740 -0.247
323106.200 3075793.655 -0.247
323106.236 3075793.583 -0.248
323106.234 3075793.510 -0.248
323106.198 3075793.452 -0.249
323106.127 3075793.422 -0.250
323106.029 3075793.385 -0.251
323105.950 3075793.382 -0.252
323105.891 3075793.349 -0.253
