322869.986 3076083.151 1.577
322869.980 3076083.170 1.574
322869.987 3076083.205 1.570
322870.009 3076083.217 1.570
322870.046 3076083.173 1.570
322870.091 3076083.055 1.564
322870.126 3076082.895 1.558
322870.090 3076082.742 1.571
322870.050 3076082.630 1.581
322870.023 3076082.576 1.589
322870.025 3076082.539 1.602
322870.040 3076082.509 1.609
322870.025 3076082.486 1.613
322869.961 3076082.448 1.604
322869.892 3076082.420 1.597
322869.809 3076082.401 1.593
322869.691 3076082.391 1.574
322869.582 3076082.411 1.573
322869.499 3076082.384 1.572
322869.415 3076082.313 1.559
322869.376 3076082.218 1.587
322869.333 3076082.126 1.615
322869.232 3076082.073 1.596
322869.104 3076082.016 1.631
322869.003 3076081.981 1.667
322868.918 3076081.889 1.644
322868.854 3076081.790 1.671
322868.833 3076081.713 1.719
322868.815 3076081.645 1.749
322868.713 3076081.584 1.737
322868.561 3076081.511 1.738
322868.421 3076081.489 1.790
322868.315 3076081.384 1.782
322868.264 3076081.272 1.804
322868.264 3076081.189 1.816
322868.268 3076081.121 1.843
322868.220 3076081.052 1.834
322868.100 3076080.976 1.829
322867.953 3076080.883 1.815
322867.813 3076080.781 1.834
322867.738 3076080.673 1.815
322867.678 3076080.565 1.818
322867.676 3076080.456 1.854
322867.604 3076080.365 1.866
322867.485 3076080.306 1.844
322867.350 3076080.275 1.809
322867.236 3076080.202 1.828
322867.147 3076080.063 1.803
322867.132 3076079.928 1.800
322867.101 3076079.831 1.833
322867.130 3076079.733 1.832
322867.142 3076079.765 1.838
322867.105 3076079.759 1.838
322867.082 3076079.779 1.822
322867.076 3076079.831 1.810
322867.096 3076079.802 1.827
322866.982 3076079.621 1.816
322866.826 3076079.463 1.809
322866.672 3076079.351 1.816
322866.550 3076079.253 1.806
322866.467 3076079.155 1.799
322866.513 3076079.057 1.817
322866.496 3076078.954 1.820
322866.421 3076078.884 1.825
322866.294 3076078.863 1.820
322866.156 3076078.813 1.781
322866.026 3076078.717 1.791
322865.948 3076078.589 1.787
322865.888 3076078.468 1.752
322865.808 3076078.349 1.785
322865.693 3076078.266 1.790
322865.550 3076078.175 1.753
322865.405 3076078.094 1.771
322865.307 3076077.939 1.766
322865.266 3076077.801 1.745
322865.250 3076077.679 1.777
322865.173 3076077.555 1.784
322865.049 3076077.454 1.755
322864.948 3076077.352 1.737
322864.852 3076077.247 1.757
322864.796 3076077.123 1.729
322864.738 3076076.991 1.737
322864.746 3076076.892 1.778
322864.722 3076076.801 1.792
322864.653 3076076.736 1.775
322864.533 3076076.676 1.734
322864.425 3076076.622 1.720
322864.315 3076076.517 1.718
322864.249 3076076.403 1.710
322864.229 3076076.266 1.700
322864.191 3076076.154 1.710
322864.105 3076076.061 1.716
322863.988 3076076.005 1.703
322863.844 3076075.950 1.647
322863.709 3076075.864 1.672
322863.611 3076075.750 1.670
322863.509 3076075.597 1.641
322863.462 3076075.490 1.656
322863.330 3076075.369 1.674
322863.183 3076075.288 1.668
322863.017 3076075.204 1.605
322862.851 3076075.118 1.624
322862.749 3076075.009 1.632
322862.712 3076074.898 1.605
322862.706 3076074.807 1.581
322862.580 3076074.649 1.595
322862.402 3076074.529 1.585
322862.184 3076074.401 1.523
322861.972 3076074.267 1.548
322861.870 3076074.117 1.543
322861.789 3076073.971 1.518
322861.732 3076073.850 1.544
322861.593 3076073.699 1.549
322861.427 3076073.565 1.521
322861.271 3076073.462 1.501
322861.135 3076073.336 1.525
322861.042 3076073.182 1.524
322861.036 3076073.084 1.501
322860.948 3076072.946 1.524
322860.812 3076072.824 1.516
322860.656 3076072.713 1.492
322860.507 3076072.654 1.511
322860.406 3076072.551 1.531
322860.373 3076072.446 1.529
322860.375 3076072.365 1.486
322860.384 3076072.264 1.502
322860.404 3076072.196 1.502
322860.418 3076072.274 1.499
322860.372 3076072.316 1.502
322860.381 3076072.304 1.503
322860.400 3076072.282 1.505
322860.415 3076072.252 1.492
322860.408 3076072.206 1.495
322860.333 3076072.115 1.488
322860.224 3076071.971 1.469
322860.098 3076071.843 1.479
322860.003 3076071.717 1.485
322859.961 3076071.589 1.474
322859.917 3076071.463 1.445
322859.887 3076071.359 1.445
322859.763 3076071.204 1.449
322859.603 3076071.079 1.423
322859.455 3076070.975 1.386
322859.334 3076070.878 1.411
322859.247 3076070.778 1.402
322859.148 3076070.642 1.379
322859.065 3076070.498 1.364
322858.939 3076070.352 1.381
322858.774 3076070.236 1.354
322858.604 3076070.134 1.322
322858.468 3076070.019 1.349
322858.379 3076069.903 1.343
322858.315 3076069.770 1.317
322858.249 3076069.651 1.298
322858.135 3076069.526 1.313
322858.013 3076069.437 1.310
322857.896 3076069.344 1.255
322857.749 3076069.235 1.272
322857.632 3076069.093 1.269
322857.553 3076068.961 1.221
322857.481 3076068.801 1.224
322857.342 3076068.634 1.241
322857.182 3076068.525 1.235
322857.036 3076068.420 1.178
322856.902 3076068.309 1.210
322856.803 3076068.178 1.201
322856.746 3076068.041 1.191
322856.691 3076067.924 1.150
322856.618 3076067.789 1.167
322856.482 3076067.671 1.153
322856.310 3076067.567 1.125
322856.168 3076067.490 1.108
322856.030 3076067.368 1.124
322855.958 3076067.247 1.113
322855.870 3076067.116 1.079
322855.796 3076066.995 1.078
322855.695 3076066.873 1.088
322855.571 3076066.793 1.078
322855.417 3076066.713 1.062
322855.256 3076066.620 1.045
322855.112 3076066.508 1.053
322855.044 3076066.400 1.033
322854.964 3076066.263 0.998
322854.879 3076066.154 1.008
322854.752 3076066.031 1.026
322854.623 3076065.937 1.008
322854.479 3076065.801 0.963
322854.321 3076065.649 0.974
322854.204 3076065.518 0.978
322854.151 3076065.394 0.960
322854.076 3076065.272 0.948
322853.942 3076065.114 0.969
322853.773 3076065.000 0.957
322853.609 3076064.875 0.910
322853.468 3076064.781 0.922
322853.328 3076064.652 0.930
322853.203 3076064.483 0.906
322853.139 3076064.371 0.893
322852.995 3076064.224 0.917
322852.816 3076064.099 0.913
322852.653 3076063.973 0.856
322852.478 3076063.839 0.898
322852.359 3076063.693 0.889
322852.234 3076063.553 0.834
322852.107 3076063.387 0.872
322851.930 3076063.250 0.872
322851.751 3076063.108 0.826
322851.534 3076062.985 0.840
322851.373 3076062.835 0.843
322851.259 3076062.684 0.803
322851.128 3076062.544 0.820
322850.953 3076062.413 0.833
322850.786 3076062.277 0.804
322850.622 3076062.144 0.778
322850.467 3076062.002 0.807
322850.364 3076061.855 0.786
322850.275 3076061.713 0.738
322850.160 3076061.552 0.765
322850.024 3076061.412 0.760
322849.902 3076061.267 0.727
322849.759 3076061.130 0.716
322849.622 3076060.984 0.739
322849.529 3076060.825 0.730
322849.435 3076060.682 0.682
322849.331 3076060.505 0.719
322849.188 3076060.356 0.715
322849.072 3076060.204 0.663
322848.934 3076060.072 0.684
322848.788 3076059.914 0.687
322848.664 3076059.737 0.659
322848.622 3076059.614 0.648
322848.510 3076059.456 0.667
322848.350 3076059.303 0.658
322848.167 3076059.154 0.596
322847.991 3076058.975 0.615
322847.871 3076058.805 0.612
322847.758 3076058.625 0.554
322847.642 3076058.452 0.583
322847.500 3076058.308 0.579
322847.337 3076058.149 0.540
322847.170 3076058.030 0.539
322847.033 3076057.881 0.557
322846.896 3076057.706 0.528
322846.841 3076057.559 0.511
322846.721 3076057.408 0.536
322846.557 3076057.278 0.518
322846.394 3076057.168 0.484
322846.236 3076057.007 0.506
322846.120 3076056.816 0.490
322846.074 3076056.652 0.462
322845.986 3076056.471 0.497
322845.815 3076056.302 0.500
322845.656 3076056.137 0.458
322845.511 3076055.969 0.482
322845.399 3076055.787 0.482
322845.322 3076055.603 0.436
322845.233 3076055.439 0.466
322845.076 3076055.262 0.486
322844.933 3076055.070 0.423
322844.771 3076054.876 0.459
322844.613 3076054.655 0.458
322844.549 3076054.485 0.422
322844.404 3076054.296 0.462
322844.232 3076054.135 0.467
322844.058 3076053.965 0.422
322843.900 3076053.824 0.460
322843.769 3076053.650 0.453
322843.657 3076053.464 0.422
322843.586 3076053.318 0.431
322843.450 3076053.159 0.444
322843.281 3076053.016 0.425
322843.118 3076052.911 0.392
322842.973 3076052.767 0.423
322842.856 3076052.612 0.411
322842.762 3076052.469 0.371
322842.635 3076052.307 0.396
322842.478 3076052.171 0.403
322842.317 3076052.014 0.365
322842.159 3076051.888 0.363
322842.022 3076051.718 0.371
322841.901 3076051.532 0.356
322841.854 3076051.411 0.338
322841.715 3076051.230 0.361
322841.538 3076051.087 0.361
322841.397 3076050.946 0.299
322841.224 3076050.778 0.322
322841.085 3076050.588 0.321
322841.011 3076050.457 0.279
322840.868 3076050.276 0.307
322840.682 3076050.139 0.308
322840.506 3076049.987 0.247
322840.323 3076049.836 0.263
322840.176 3076049.670 0.264
322840.047 3076049.517 0.231
322839.911 3076049.371 0.240
322839.751 3076049.242 0.255
322839.572 3076049.128 0.235
322839.382 3076049.018 0.188
322839.209 3076048.872 0.209
322839.085 3076048.722 0.205
322838.990 3076048.590 0.152
322838.838 3076048.427 0.185
322838.677 3076048.311 0.177
322838.522 3076048.190 0.135
322838.348 3076048.080 0.140
322838.198 3076047.945 0.152
322838.076 3076047.791 0.136
322837.994 3076047.652 0.099
322837.868 3076047.496 0.122
322837.740 3076047.394 0.112
322837.594 3076047.275 0.075
322837.437 3076047.158 0.064
322837.287 3076047.033 0.078
322837.177 3076046.877 0.060
322837.092 3076046.761 0.041
322836.963 3076046.602 0.059
322836.799 3076046.473 0.051
322836.660 3076046.359 0.004
322836.494 3076046.232 0.031
322836.358 3076046.063 0.020
322836.240 3076045.898 -0.014
322836.158 3076045.749 0.004
322836.020 3076045.598 0.014
322835.862 3076045.454 -0.008
322835.708 3076045.334 -0.027
322835.562 3076045.190 -0.007
322835.448 3076045.037 -0.020
322835.373 3076044.877 -0.063
322835.267 3076044.716 -0.026
322835.130 3076044.596 -0.028
322834.981 3076044.465 -0.075
322834.813 3076044.321 -0.050
322834.681 3076044.172 -0.052
322834.559 3076044.003 -0.085
322834.514 3076043.865 -0.075
322834.371 3076043.726 -0.051
322834.187 3076043.620 -0.062
322833.997 3076043.508 -0.114
322833.827 3076043.378 -0.098
322833.701 3076043.246 -0.116
322833.607 3076043.119 -0.150
322833.519 3076043.004 -0.121
322833.417 3076042.902 -0.114
322833.258 3076042.771 -0.125
322833.095 3076042.665 -0.152
322832.919 3076042.515 -0.124
322832.797 3076042.364 -0.147
322832.731 3076042.222 -0.178
322832.642 3076042.072 -0.159
322832.503 3076041.935 -0.149
322832.336 3076041.811 -0.173
322832.172 3076041.692 -0.219
322832.013 3076041.548 -0.195
322831.890 3076041.402 -0.216
322831.826 3076041.276 -0.247
322831.679 3076041.123 -0.217
322831.498 3076041.009 -0.210
322831.316 3076040.881 -0.248
322831.134 3076040.762 -0.239
322830.987 3076040.621 -0.243
322830.877 3076040.476 -0.257
322830.827 3076040.362 -0.272
322830.709 3076040.226 -0.252
322830.579 3076040.142 -0.259
322830.421 3076040.032 -0.301
322830.251 3076039.932 -0.288
322830.150 3076039.793 -0.281
322830.093 3076039.655 -0.293
322830.068 3076039.527 -0.325
322829.972 3076039.369 -0.317
322829.845 3076039.245 -0.320
322829.717 3076039.175 -0.359
322829.593 3076039.115 -0.343
322829.513 3076038.982 -0.348
322829.514 3076038.848 -0.382
322829.470 3076038.691 -0.393
322829.372 3076038.544 -0.387
322829.264 3076038.453 -0.387
322829.142 3076038.432 -0.419
322829.018 3076038.386 -0.416
322828.932 3076038.304 -0.408
322828.903 3076038.234 -0.417
322828.891 3076038.179 -0.417
322828.897 3076038.160 -0.414
322828.898 3076038.156 -0.415
322828.898 3076038.154 -0.415
322828.895 3076038.155 -0.422
322828.889 3076038.146 -0.427
322828.884 3076038.141 -0.432
322828.882 3076038.138 -0.430
