322786.402 3076162.695 1.828
322786.399 3076162.658 1.827
322786.365 3076162.610 1.823
322786.291 3076162.574 1.817
322786.197 3076162.543 1.807
322786.125 3076162.484 1.794
322786.066 3076162.423 1.781
322786.043 3076162.312 1.767
322785.985 3076162.233 1.755
322785.897 3076162.122 1.743
322785.775 3076162.024 1.740
322785.669 3076161.883 1.737
322785.551 3076161.752 1.725
322785.517 3076161.646 1.717
322785.462 3076161.523 1.704
322785.371 3076161.389 1.691
322785.260 3076161.282 1.686
322785.153 3076161.163 1.684
322785.058 3076161.078 1.683
322785.014 3076160.973 1.682
322784.967 3076160.861 1.682
322784.884 3076160.710 1.684
322784.763 3076160.581 1.695
322784.659 3076160.506 1.705
322784.574 3076160.397 1.714
322784.495 3076160.281 1.719
322784.489 3076160.198 1.719
322784.431 3076160.098 1.715
322784.347 3076159.983 1.705
322784.223 3076159.904 1.694
322784.117 3076159.814 1.688
322784.026 3076159.714 1.685
322783.993 3076159.617 1.685
322783.941 3076159.512 1.685
322783.883 3076159.391 1.685
322783.797 3076159.269 1.686
322783.692 3076159.169 1.689
322783.583 3076159.058 1.689
322783.470 3076158.941 1.683
322783.409 3076158.808 1.673
322783.344 3076158.697 1.662
322783.267 3076158.536 1.643
322783.158 3076158.413 1.625
322783.043 3076158.312 1.613
322782.921 3076158.169 1.611
322782.839 3076158.009 1.614
322782.786 3076157.861 1.615
322782.686 3076157.715 1.606
322782.577 3076157.589 1.592
322782.449 3076157.493 1.580
322782.320 3076157.326 1.572
322782.200 3076157.185 1.565
322782.167 3076157.050 1.561
322782.106 3076156.912 1.555
322782.063 3076156.752 1.554
322781.967 3076156.616 1.556
322781.891 3076156.487 1.561
322781.770 3076156.315 1.570
322781.709 3076156.156 1.575
322781.660 3076156.010 1.574
322781.588 3076155.828 1.568
322781.449 3076155.676 1.560
322781.300 3076155.539 1.544
322781.192 3076155.399 1.530
322781.171 3076155.276 1.524
322781.118 3076155.129 1.516
322781.047 3076154.979 1.510
322780.916 3076154.858 1.507
322780.801 3076154.728 1.507
322780.664 3076154.580 1.506
322780.574 3076154.439 1.501
322780.553 3076154.341 1.497
322780.487 3076154.192 1.487
322780.370 3076154.066 1.470
322780.228 3076153.942 1.454
322780.090 3076153.777 1.452
322779.960 3076153.639 1.449
322779.894 3076153.503 1.443
322779.816 3076153.357 1.438
322779.715 3076153.216 1.432
322779.558 3076153.105 1.430
322779.412 3076152.998 1.432
322779.271 3076152.891 1.429
322779.178 3076152.796 1.422
322779.134 3076152.714 1.415
322779.040 3076152.617 1.407
322778.913 3076152.564 1.402
322778.784 3076152.557 1.405
322778.626 3076152.522 1.416
322778.486 3076152.467 1.429
322778.391 3076152.388 1.437
322778.383 3076152.316 1.439
322778.346 3076152.237 1.439
322778.296 3076152.179 1.439
322778.189 3076152.143 1.438
322778.051 3076152.155 1.438
322777.883 3076152.136 1.440
322777.732 3076152.105 1.442
322777.664 3076152.049 1.442
322777.659 3076151.990 1.442
322777.585 3076151.936 1.441
322777.460 3076151.914 1.439
322777.317 3076151.954 1.438
322777.148 3076151.950 1.438
322777.082 3076151.938 1.438
322777.094 3076151.916 1.438
322777.013 3076151.901 1.438
322776.920 3076151.913 1.437
322776.824 3076151.938 1.437
322776.739 3076151.961 1.437
322776.669 3076151.953 1.437
322776.634 3076151.899 1.436
322776.663 3076151.829 1.436
322776.636 3076151.710 1.435
322776.576 3076151.606 1.434
322776.454 3076151.545 1.432
322776.311 3076151.496 1.430
322776.098 3076151.376 1.420
322775.945 3076151.241 1.406
322775.945 3076151.156 1.402
322775.841 3076151.043 1.391
322775.665 3076150.982 1.385
322775.493 3076150.910 1.390
322775.303 3076150.827 1.385
322775.183 3076150.709 1.369
322775.143 3076150.595 1.358
322775.009 3076150.466 1.338
322774.872 3076150.368 1.321
322774.735 3076150.268 1.311
322774.566 3076150.112 1.311
322774.436 3076149.973 1.304
322774.345 3076149.844 1.295
322774.211 3076149.682 1.290
322774.062 3076149.556 1.288
322773.902 3076149.487 1.286
322773.718 3076149.342 1.281
322773.593 3076149.209 1.270
322773.519 3076149.085 1.261
322773.393 3076148.927 1.251
322773.255 3076148.788 1.237
322773.097 3076148.667 1.222
322772.943 3076148.512 1.212
322772.809 3076148.376 1.196
322772.696 3076148.232 1.179
322772.587 3076148.058 1.166
322772.472 3076147.926 1.157
322772.348 3076147.803 1.152
322772.160 3076147.635 1.153
322772.031 3076147.492 1.145
322771.920 3076147.353 1.134
322771.783 3076147.181 1.126
322771.644 3076147.038 1.117
322771.493 3076146.960 1.109
322771.320 3076146.822 1.097
322771.193 3076146.684 1.084
322771.125 3076146.556 1.076
322771.014 3076146.394 1.066
322770.890 3076146.259 1.054
322770.744 3076146.149 1.046
322770.575 3076145.987 1.042
322770.460 3076145.848 1.028
322770.362 3076145.717 1.011
322770.245 3076145.575 0.997
322770.102 3076145.455 0.989
322769.946 3076145.386 0.988
322769.772 3076145.273 0.987
322769.658 3076145.164 0.979
322769.583 3076145.008 0.967
322769.514 3076144.875 0.958
322769.397 3076144.735 0.949
322769.263 3076144.624 0.942
322769.126 3076144.494 0.936
322768.985 3076144.360 0.925
322768.922 3076144.207 0.915
322768.880 3076144.060 0.908
322768.777 3076143.885 0.900
322768.667 3076143.749 0.895
322768.560 3076143.642 0.893
322768.413 3076143.485 0.888
322768.320 3076143.334 0.881
322768.279 3076143.212 0.876
322768.180 3076143.053 0.867
322768.044 3076142.915 0.858
322767.920 3076142.819 0.854
322767.758 3076142.669 0.853
322767.652 3076142.531 0.846
322767.590 3076142.398 0.837
322767.495 3076142.263 0.828
322767.388 3076142.117 0.822
322767.245 3076141.984 0.821
322767.132 3076141.831 0.821
322766.998 3076141.687 0.813
322766.907 3076141.530 0.799
322766.818 3076141.389 0.785
322766.733 3076141.247 0.772
322766.606 3076141.122 0.758
322766.491 3076140.978 0.747
322766.352 3076140.833 0.737
322766.279 3076140.680 0.729
322766.219 3076140.549 0.721
322766.136 3076140.390 0.711
322765.991 3076140.257 0.695
322765.868 3076140.136 0.687
322765.724 3076139.985 0.683
322765.618 3076139.820 0.681
322765.495 3076139.675 0.680
322765.391 3076139.506 0.671
322765.248 3076139.377 0.651
322765.105 3076139.265 0.636
322764.931 3076139.115 0.614
322764.814 3076138.948 0.598
322764.736 3076138.802 0.595
322764.568 3076138.618 0.598
322764.384 3076138.476 0.602
322764.258 3076138.343 0.611
322764.114 3076138.214 0.620
322763.996 3076138.053 0.621
322763.950 3076137.937 0.621
322763.864 3076137.787 0.623
322763.746 3076137.636 0.624
322763.597 3076137.507 0.630
322763.471 3076137.372 0.642
322763.354 3076137.264 0.651
322763.238 3076137.115 0.657
322763.186 3076136.999 0.661
322763.090 3076136.842 0.668
322762.978 3076136.700 0.674
322762.835 3076136.564 0.681
322762.706 3076136.442 0.692
322762.586 3076136.321 0.696
322762.498 3076136.170 0.695
322762.432 3076136.037 0.693
322762.345 3076135.875 0.691
322762.228 3076135.738 0.681
322762.099 3076135.629 0.666
322761.957 3076135.503 0.647
322761.822 3076135.353 0.618
322761.736 3076135.198 0.594
322761.648 3076135.061 0.574
322761.482 3076134.914 0.547
322761.345 3076134.778 0.535
322761.136 3076134.635 0.528
322760.993 3076134.451 0.510
322760.878 3076134.298 0.496
322760.754 3076134.166 0.481
322760.574 3076134.074 0.461
322760.410 3076133.942 0.443
322760.260 3076133.813 0.418
322760.161 3076133.665 0.397
322760.052 3076133.544 0.382
322759.910 3076133.420 0.364
322759.740 3076133.317 0.349
322759.571 3076133.199 0.340
322759.415 3076133.066 0.324
322759.322 3076132.926 0.312
322759.207 3076132.770 0.307
322759.082 3076132.645 0.301
322758.914 3076132.544 0.291
322758.755 3076132.413 0.285
322758.607 3076132.301 0.273
322758.496 3076132.157 0.258
322758.381 3076132.019 0.251
322758.246 3076131.886 0.244
322758.078 3076131.783 0.234
322757.924 3076131.651 0.230
322757.750 3076131.526 0.215
322757.638 3076131.379 0.195
322757.537 3076131.254 0.186
322757.402 3076131.096 0.177
322757.249 3076130.976 0.170
322757.098 3076130.856 0.167
322756.941 3076130.745 0.154
322756.816 3076130.618 0.133
322756.734 3076130.506 0.120
322756.586 3076130.338 0.109
322756.451 3076130.206 0.101
322756.322 3076130.086 0.097
322756.136 3076129.929 0.095
322756.003 3076129.775 0.084
322755.902 3076129.648 0.076
322755.776 3076129.490 0.068
322755.620 3076129.353 0.058
322755.500 3076129.231 0.053
322755.311 3076129.065 0.040
322755.186 3076128.905 0.022
322755.128 3076128.792 0.012
322754.997 3076128.632 -0.003
322754.852 3076128.509 -0.015
322754.719 3076128.383 -0.018
322754.528 3076128.238 -0.021
322754.386 3076128.092 -0.035
322754.280 3076127.975 -0.044
322754.137 3076127.811 -0.054
322753.984 3076127.694 -0.064
322753.840 3076127.582 -0.068
322753.647 3076127.429 -0.069
322753.515 3076127.293 -0.080
322753.418 3076127.179 -0.089
322753.298 3076127.028 -0.099
322753.161 3076126.905 -0.107
322753.014 3076126.788 -0.110
322752.841 3076126.629 -0.104
322752.700 3076126.507 -0.111
322752.611 3076126.386 -0.121
322752.504 3076126.254 -0.130
322752.389 3076126.131 -0.137
322752.233 3076126.017 -0.136
322752.103 3076125.901 -0.128
322751.959 3076125.799 -0.125
322751.835 3076125.666 -0.132
322751.769 3076125.574 -0.138
322751.650 3076125.439 -0.144
322751.519 3076125.332 -0.148
322751.383 3076125.232 -0.146
322751.240 3076125.113 -0.140
322751.127 3076125.024 -0.140
322751.033 3076124.909 -0.143
322750.967 3076124.823 -0.147
322750.878 3076124.704 -0.152
322750.751 3076124.600 -0.156
322750.620 3076124.527 -0.155
322750.465 3076124.432 -0.150
322750.348 3076124.353 -0.149
322750.271 3076124.237 -0.150
322750.197 3076124.125 -0.153
322750.095 3076124.015 -0.159
322749.973 3076123.917 -0.167
322749.830 3076123.854 -0.174
322749.675 3076123.766 -0.179
322749.548 3076123.691 -0.184
322749.428 3076123.577 -0.192
322749.404 3076123.482 -0.195
322749.261 3076123.352 -0.200
322749.119 3076123.250 -0.205
322748.950 3076123.155 -0.210
322748.788 3076123.054 -0.213
322748.647 3076122.973 -0.221
322748.555 3076122.840 -0.232
322748.508 3076122.746 -0.240
322748.385 3076122.609 -0.254
322748.250 3076122.516 -0.265
322748.118 3076122.423 -0.272
322747.970 3076122.298 -0.278
322747.840 3076122.176 -0.286
322747.786 3076122.048 -0.293
322747.716 3076121.938 -0.301
322747.626 3076121.831 -0.308
322747.492 3076121.746 -0.314
322747.385 3076121.634 -0.316
322747.238 3076121.522 -0.321
322747.145 3076121.395 -0.328
322747.091 3076121.284 -0.334
322747.032 3076121.161 -0.342
322746.948 3076121.076 -0.349
322746.830 3076121.012 -0.356
322746.733 3076120.951 -0.360
322746.636 3076120.882 -0.363
322746.573 3076120.795 -0.366
322746.517 3076120.704 -0.369
322746.479 3076120.606 -0.374
322746.428 3076120.505 -0.380
322746.346 3076120.408 -0.388
322746.251 3076120.326 -0.393
322746.168 3076120.251 -0.395
322746.079 3076120.148 -0.395
322746.037 3076120.041 -0.396
322746.043 3076119.967 -0.397
322746.035 3076119.895 -0.398
322745.977 3076119.852 -0.402
322745.891 3076119.858 -0.405
322745.767 3076119.839 -0.411
322745.674 3076119.820 -0.416
322745.645 3076119.780 -0.418
322745.682 3076119.722 -0.418
322745.665 3076119.651 -0.420
322745.647 3076119.589 -0.423
322745.611 3076119.542 -0.427
322745.535 3076119.509 -0.434
322745.431 3076119.500 -0.444
322745.297 3076119.473 -0.456
322745.349 3076119.318 -0.459
322745.374 3076119.245 -0.460
322745.358 3076119.204 -0.461
322745.296 3076119.068 -0.463
322745.332 3076119.016 -0.463
322745.368 3076118.879 -0.464
322745.317 3076118.863 -0.465
322745.281 3076118.857 -0.466
322745.270 3076118.829 -0.467
322745.290 3076118.769 -0.468
322745.910 3076117.996 -0.468
322745.909 3076117.985 -0.469
322745.907 3076117.978 -0.469
322745.885 3076117.979 -0.470
322745.858 3076117.966 -0.471
322745.865 3076117.954 -0.471
322745.862 3076117.957 -0.471
322745.854 3076117.939 -0.472
322745.834 3076117.954 -0.473
322745.301 3076118.552 -0.474
322745.726 3076117.931 -0.479
322745.232 3076118.437 -0.482
322745.657 3076117.916 -0.483
322745.607 3076117.918 -0.485
322745.214 3076118.313 -0.489
322745.502 3076117.935 -0.490
322745.376 3076118.019 -0.493
322745.228 3076118.183 -0.494
322745.282 3076118.096 -0.495
