322813.436 3076067.079 -0.062
322813.573 3076066.913 -0.061
322813.706 3076066.758 -0.054
322813.857 3076066.568 -0.043
322814.012 3076066.399 -0.050
322814.142 3076066.283 -0.051
322814.326 3076066.115 -0.046
322814.474 3076065.946 -0.049
322814.601 3076065.791 -0.045
322814.770 3076065.577 -0.040
322814.927 3076065.407 -0.052
322815.051 3076065.296 -0.056
322815.231 3076065.141 -0.062
322815.374 3076064.961 -0.069
322815.466 3076064.794 -0.065
322815.614 3076064.592 -0.059
322815.749 3076064.432 -0.066
322815.861 3076064.330 -0.066
322816.014 3076064.146 -0.062
322816.137 3076063.963 -0.063
322816.228 3076063.792 -0.058
322816.372 3076063.572 -0.043
322816.498 3076063.392 -0.050
322816.630 3076063.250 -0.055
322816.794 3076063.070 -0.051
322816.934 3076062.895 -0.053
322817.046 3076062.723 -0.054
322817.193 3076062.520 -0.049
322817.336 3076062.350 -0.060
322817.457 3076062.229 -0.067
322817.626 3076062.052 -0.065
322817.765 3076061.884 -0.067
322817.876 3076061.717 -0.065
322818.037 3076061.501 -0.054
322818.156 3076061.330 -0.063
322818.269 3076061.215 -0.071
322818.442 3076061.048 -0.072
322818.584 3076060.886 -0.077
322818.706 3076060.706 -0.080
322818.861 3076060.491 -0.063
322819.003 3076060.298 -0.066
322819.148 3076060.168 -0.069
322819.326 3076059.996 -0.063
322819.481 3076059.829 -0.068
322819.600 3076059.650 -0.072
322819.768 3076059.428 -0.061
322819.925 3076059.244 -0.066
322820.066 3076059.134 -0.067
322820.259 3076058.970 -0.062
322820.412 3076058.815 -0.066
322820.531 3076058.664 -0.066
322820.711 3076058.473 -0.059
322820.871 3076058.319 -0.070
322821.007 3076058.211 -0.074
322821.190 3076058.046 -0.070
322821.348 3076057.890 -0.076
322821.471 3076057.742 -0.079
322821.649 3076057.573 -0.072
322821.800 3076057.416 -0.075
322821.939 3076057.298 -0.076
322822.120 3076057.136 -0.067
322822.267 3076056.999 -0.068
322822.392 3076056.830 -0.071
322822.561 3076056.646 -0.061
322822.685 3076056.470 -0.067
322822.839 3076056.319 -0.080
322822.984 3076056.156 -0.077
322823.140 3076055.999 -0.078
322823.273 3076055.815 -0.078
322823.424 3076055.654 -0.062
322823.551 3076055.461 -0.058
322823.697 3076055.296 -0.065
322823.842 3076055.157 -0.060
322824.004 3076054.996 -0.062
322824.150 3076054.817 -0.067
322824.301 3076054.641 -0.053
322824.425 3076054.451 -0.055
322824.576 3076054.292 -0.069
322824.709 3076054.154 -0.068
322824.867 3076054.001 -0.068
322825.000 3076053.809 -0.068
322825.145 3076053.618 -0.053
322825.277 3076053.413 -0.059
322825.421 3076053.254 -0.075
322825.569 3076053.108 -0.076
322825.724 3076052.945 -0.078
322825.848 3076052.760 -0.078
322825.992 3076052.560 -0.063
322826.131 3076052.353 -0.064
322826.285 3076052.221 -0.067
322826.459 3076052.068 -0.056
322826.618 3076051.917 -0.055
322826.746 3076051.736 -0.057
322826.920 3076051.521 -0.045
322827.054 3076051.347 -0.055
322827.202 3076051.233 -0.065
322827.375 3076051.072 -0.065
322827.529 3076050.921 -0.067
322827.659 3076050.756 -0.065
322827.830 3076050.565 -0.050
322827.992 3076050.392 -0.053
322828.143 3076050.289 -0.056
322828.316 3076050.149 -0.054
322828.470 3076049.994 -0.060
322828.608 3076049.829 -0.064
322828.793 3076049.636 -0.052
322828.940 3076049.458 -0.058
322829.104 3076049.342 -0.064
322829.285 3076049.203 -0.057
322829.449 3076049.059 -0.056
322829.595 3076048.878 -0.059
322829.765 3076048.705 -0.046
322829.917 3076048.519 -0.048
322830.089 3076048.380 -0.055
322830.258 3076048.236 -0.048
322830.422 3076048.081 -0.050
322830.564 3076047.899 -0.052
322830.734 3076047.733 -0.038
322830.878 3076047.551 -0.042
322831.031 3076047.393 -0.051
322831.199 3076047.228 -0.043
322831.343 3076047.078 -0.044
322831.476 3076046.907 -0.046
322831.644 3076046.711 -0.034
322831.776 3076046.522 -0.041
322831.916 3076046.353 -0.050
322832.081 3076046.171 -0.043
322832.229 3076046.003 -0.045
322832.345 3076045.820 -0.047
322832.519 3076045.599 -0.036
322832.670 3076045.405 -0.048
322832.814 3076045.262 -0.058
322832.991 3076045.102 -0.056
322833.151 3076044.939 -0.056
322833.279 3076044.766 -0.054
322833.465 3076044.561 -0.044
322833.632 3076044.402 -0.047
322833.782 3076044.293 -0.045
322833.978 3076044.145 -0.038
322834.134 3076043.992 -0.043
322834.262 3076043.844 -0.043
322834.423 3076043.649 -0.037
322834.583 3076043.478 -0.046
322834.730 3076043.376 -0.050
322834.920 3076043.207 -0.045
322835.073 3076043.040 -0.047
322835.185 3076042.879 -0.048
322835.353 3076042.688 -0.042
322835.498 3076042.510 -0.050
322835.631 3076042.395 -0.055
322835.807 3076042.240 -0.053
322835.948 3076042.080 -0.054
322836.081 3076041.907 -0.051
322836.235 3076041.702 -0.040
322836.376 3076041.523 -0.049
322836.502 3076041.393 -0.056
322836.674 3076041.241 -0.057
322836.814 3076041.096 -0.065
322836.929 3076040.940 -0.070
322837.086 3076040.728 -0.059
322837.218 3076040.556 -0.064
322837.359 3076040.421 -0.067
322837.533 3076040.259 -0.053
322837.687 3076040.112 -0.051
322837.802 3076039.942 -0.056
322837.946 3076039.766 -0.051
322838.077 3076039.585 -0.056
322838.231 3076039.441 -0.068
322838.383 3076039.292 -0.065
322838.532 3076039.152 -0.063
322838.666 3076038.966 -0.064
322838.804 3076038.804 -0.054
322838.924 3076038.607 -0.053
322839.080 3076038.443 -0.061
322839.200 3076038.323 -0.057
322839.361 3076038.168 -0.050
322839.482 3076037.970 -0.049
322839.580 3076037.805 -0.041
322839.691 3076037.612 -0.040
322839.845 3076037.450 -0.052
322839.954 3076037.338 -0.054
322840.120 3076037.168 -0.053
322840.254 3076036.991 -0.062
322840.369 3076036.832 -0.061
322840.529 3076036.623 -0.053
322840.671 3076036.465 -0.062
322840.799 3076036.355 -0.067
322840.968 3076036.207 -0.069
322841.107 3076036.046 -0.077
322841.191 3076035.867 -0.077
322841.326 3076035.658 -0.063
322841.448 3076035.480 -0.065
322841.570 3076035.357 -0.068
322841.716 3076035.212 -0.063
322841.852 3076035.053 -0.065
322841.959 3076034.862 -0.068
322842.091 3076034.660 -0.058
322842.201 3076034.473 -0.065
322842.348 3076034.320 -0.080
322842.470 3076034.190 -0.081
322842.625 3076034.036 -0.085
322842.766 3076033.852 -0.090
322842.901 3076033.692 -0.081
322843.039 3076033.503 -0.079
322843.211 3076033.356 -0.085
322843.347 3076033.255 -0.082
322843.516 3076033.150 -0.079
322843.637 3076032.978 -0.079
322843.738 3076032.809 -0.071
322843.864 3076032.605 -0.066
322843.999 3076032.443 -0.079
322844.125 3076032.351 -0.084
322844.296 3076032.204 -0.081
322844.440 3076032.053 -0.082
322844.572 3076031.883 -0.084
322844.743 3076031.695 -0.072
322844.894 3076031.520 -0.079
322845.048 3076031.414 -0.085
322845.220 3076031.284 -0.083
322845.369 3076031.161 -0.086
322845.491 3076031.007 -0.092
322845.644 3076030.849 -0.085
322845.777 3076030.680 -0.084
322845.941 3076030.538 -0.089
322846.086 3076030.422 -0.084
322846.249 3076030.290 -0.082
322846.387 3076030.125 -0.086
322846.515 3076029.969 -0.082
322846.650 3076029.805 -0.082
322846.822 3076029.688 -0.085
322846.943 3076029.641 -0.083
322847.131 3076029.543 -0.073
322847.294 3076029.430 -0.072
322847.444 3076029.333 -0.076
322847.635 3076029.223 -0.072
322847.816 3076029.099 -0.071
322847.991 3076029.070 -0.072
322848.143 3076029.057 -0.071
322848.313 3076029.025 -0.069
322848.451 3076028.940 -0.062
322848.591 3076028.865 -0.053
322848.728 3076028.782 -0.046
322848.851 3076028.732 -0.043
322848.943 3076028.732 -0.043
322849.044 3076028.711 -0.043
322849.127 3076028.645 -0.045
322849.145 3076028.545 -0.046
322849.189 3076028.461 -0.046
322849.249 3076028.412 -0.045
322849.322 3076028.421 -0.044
322849.406 3076028.441 -0.043
322849.432 3076028.419 -0.043
322849.485 3076028.376 -0.041
322849.545 3076028.352 -0.040
322849.582 3076028.314 -0.039
322849.629 3076028.230 -0.038
322849.688 3076028.112 -0.042
322849.741 3076027.934 -0.054
322849.798 3076027.764 -0.057
322849.765 3076027.717 -0.057
322849.774 3076027.717 -0.057
322849.815 3076027.745 -0.057
322849.931 3076027.739 -0.057
322850.011 3076027.785 -0.057
322850.146 3076027.782 -0.057
322850.273 3076027.712 -0.057
322850.331 3076027.594 -0.058
322850.392 3076027.450 -0.058
322850.469 3076027.324 -0.058
322850.593 3076027.213 -0.060
322850.705 3076027.166 -0.062
322850.843 3076027.048 -0.061
322850.965 3076026.933 -0.062
322851.074 3076026.791 -0.065
322851.169 3076026.645 -0.065
322851.269 3076026.494 -0.067
322851.399 3076026.361 -0.076
322851.518 3076026.293 -0.081
322851.671 3076026.159 -0.081
322851.802 3076026.018 -0.084
322851.915 3076025.869 -0.087
322852.054 3076025.696 -0.083
322852.184 3076025.517 -0.093
322852.340 3076025.393 -0.104
322852.476 3076025.290 -0.102
322852.641 3076025.174 -0.096
322852.796 3076025.021 -0.092
322852.918 3076024.877 -0.084
322853.059 3076024.694 -0.082
322853.219 3076024.547 -0.092
322853.362 3076024.444 -0.092
322853.544 3076024.294 -0.090
322853.687 3076024.148 -0.091
322853.816 3076023.991 -0.086
322853.969 3076023.811 -0.081
322854.134 3076023.656 -0.088
322854.273 3076023.576 -0.090
322854.469 3076023.424 -0.088
322854.619 3076023.281 -0.095
322854.749 3076023.138 -0.096
322854.949 3076022.954 -0.078
322855.101 3076022.797 -0.079
322855.260 3076022.701 -0.082
322855.418 3076022.594 -0.080
322855.557 3076022.463 -0.084
322855.678 3076022.305 -0.087
322855.826 3076022.154 -0.078
322855.947 3076021.989 -0.076
322856.100 3076021.840 -0.086
322856.225 3076021.744 -0.087
322856.393 3076021.608 -0.086
322856.540 3076021.439 -0.091
322856.662 3076021.287 -0.087
322856.806 3076021.108 -0.085
322856.959 3076020.954 -0.095
322857.071 3076020.859 -0.096
322857.236 3076020.717 -0.098
322857.370 3076020.565 -0.108
322857.476 3076020.437 -0.110
322857.622 3076020.250 -0.101
322857.776 3076020.082 -0.107
322857.916 3076019.960 -0.112
322858.077 3076019.833 -0.109
322858.227 3076019.704 -0.112
322858.357 3076019.538 -0.116
322858.512 3076019.381 -0.109
322858.650 3076019.219 -0.110
322858.815 3076019.089 -0.117
322858.945 3076018.993 -0.113
322859.107 3076018.867 -0.109
322859.255 3076018.698 -0.112
322859.382 3076018.559 -0.107
322859.534 3076018.375 -0.103
322859.698 3076018.213 -0.115
322859.824 3076018.118 -0.119
322860.008 3076017.968 -0.121
322860.152 3076017.807 -0.123
322860.268 3076017.655 -0.116
322860.427 3076017.460 -0.109
322860.581 3076017.306 -0.122
322860.711 3076017.205 -0.126
322860.892 3076017.056 -0.117
322861.050 3076016.919 -0.115
322861.193 3076016.760 -0.113
322861.372 3076016.598 -0.100
322861.503 3076016.443 -0.105
322861.647 3076016.311 -0.118
322861.783 3076016.208 -0.123
322861.928 3076016.070 -0.128
322862.075 3076015.914 -0.125
322862.242 3076015.730 -0.102
322862.392 3076015.542 -0.097
322862.565 3076015.409 -0.105
322862.724 3076015.306 -0.101
322862.907 3076015.174 -0.096
322863.089 3076015.007 -0.097
322863.249 3076014.873 -0.092
322863.428 3076014.707 -0.100
322863.622 3076014.613 -0.108
322863.781 3076014.528 -0.104
322863.957 3076014.424 -0.100
322864.117 3076014.261 -0.101
322864.263 3076014.115 -0.089
322864.412 3076013.932 -0.081
322864.582 3076013.784 -0.091
322864.696 3076013.691 -0.092
322864.875 3076013.537 -0.093
322865.020 3076013.377 -0.100
322865.139 3076013.234 -0.098
322865.311 3076013.043 -0.089
322865.484 3076012.898 -0.095
322865.616 3076012.806 -0.097
322865.814 3076012.680 -0.093
322865.968 3076012.532 -0.097
322866.089 3076012.378 -0.096
322866.255 3076012.214 -0.087
322866.396 3076012.053 -0.092
322866.556 3076011.921 -0.099
322866.712 3076011.803 -0.095
322866.872 3076011.685 -0.095
322867.029 3076011.537 -0.099
322867.191 3076011.395 -0.093
322867.345 3076011.223 -0.094
322867.509 3076011.105 -0.097
322867.659 3076011.010 -0.090
322867.807 3076010.905 -0.085
322867.923 3076010.744 -0.086
322868.010 3076010.578 -0.082
322868.131 3076010.386 -0.075
322868.292 3076010.232 -0.086
322868.426 3076010.105 -0.093
322868.621 3076009.955 -0.093
322868.772 3076009.824 -0.100
322868.889 3076009.681 -0.104
322869.063 3076009.481 -0.092
322869.221 3076009.327 -0.097
322869.371 3076009.227 -0.105
322869.549 3076009.109 -0.104
322869.718 3076008.983 -0.107
322869.861 3076008.807 -0.108
322870.022 3076008.634 -0.096
322870.152 3076008.459 -0.097
322870.321 3076008.312 -0.106
322870.480 3076008.191 -0.102
322870.649 3076008.044 -0.103
322870.797 3076007.868 -0.105
322870.957 3076007.703 -0.091
322871.100 3076007.528 -0.092
322871.261 3076007.387 -0.100
322871.419 3076007.255 -0.097
322871.577 3076007.128 -0.100
322871.715 3076006.954 -0.105
322871.852 3076006.782 -0.095
322871.983 3076006.608 -0.095
322872.147 3076006.476 -0.099
322872.291 3076006.356 -0.092
322872.448 3076006.226 -0.088
322872.580 3076006.062 -0.092
322872.703 3076005.918 -0.088
322872.836 3076005.747 -0.086
322873.004 3076005.605 -0.094
322873.143 3076005.525 -0.096
322873.331 3076005.388 -0.092
322873.493 3076005.246 -0.099
322873.612 3076005.106 -0.102
322873.786 3076004.945 -0.097
322873.935 3076004.815 -0.098
322874.081 3076004.724 -0.101
322874.253 3076004.630 -0.098
322874.412 3076004.518 -0.099
322874.541 3076004.370 -0.100
322874.682 3076004.207 -0.089
322874.815 3076004.034 -0.084
322874.984 3076003.895 -0.091
322875.116 3076003.793 -0.091
322875.283 3076003.660 -0.091
322875.433 3076003.497 -0.096
322875.539 3076003.352 -0.094
322875.681 3076003.186 -0.091
322875.836 3076003.046 -0.096
322875.965 3076002.967 -0.095
322876.141 3076002.816 -0.090
322876.275 3076002.661 -0.091
322876.382 3076002.498 -0.092
322876.543 3076002.308 -0.086
322876.678 3076002.139 -0.096
322876.824 3076002.018 -0.105
322876.980 3076001.894 -0.103
322877.135 3076001.740 -0.106
322877.274 3076001.576 -0.110
322877.429 3076001.423 -0.104
322877.561 3076001.249 -0.110
322877.735 3076001.131 -0.120
322877.872 3076001.013 -0.116
322878.033 3076000.878 -0.111
322878.186 3076000.724 -0.115
322878.317 3076000.589 -0.110
322878.478 3076000.418 -0.107
322878.654 3076000.275 -0.113
322878.805 3076000.192 -0.110
322879.000 3076000.056 -0.101
322879.185 3075999.899 -0.106
322879.329 3075999.735 -0.104
322879.506 3075999.566 -0.104
322879.674 3075999.421 -0.117
322879.803 3075999.333 -0.120
322879.997 3075999.186 -0.119
322880.152 3075999.024 -0.120
322880.281 3075998.866 -0.114
322880.459 3075998.675 -0.107
322880.628 3075998.522 -0.115
322880.760 3075998.432 -0.116
322880.951 3075998.285 -0.113
322881.103 3075998.136 -0.117
322881.225 3075997.987 -0.115
322881.406 3075997.817 -0.104
322881.560 3075997.659 -0.112
322881.709 3075997.556 -0.117
322881.883 3075997.408 -0.115
322882.043 3075997.268 -0.117
322882.184 3075997.122 -0.118
322882.365 3075996.958 -0.107
322882.514 3075996.794 -0.113
322882.683 3075996.686 -0.120
322882.850 3075996.562 -0.114
322883.019 3075996.427 -0.113
322883.169 3075996.261 -0.116
322883.331 3075996.117 -0.104
322883.475 3075995.952 -0.101
322883.640 3075995.824 -0.109
322883.780 3075995.740 -0.107
322883.952 3075995.612 -0.103
322884.112 3075995.437 -0.104
322884.249 3075995.279 -0.093
322884.395 3075995.101 -0.089
322884.565 3075994.939 -0.101
322884.702 3075994.844 -0.104
322884.904 3075994.706 -0.103
322885.074 3075994.544 -0.104
322885.211 3075994.392 -0.094
322885.391 3075994.204 -0.087
322885.579 3075994.059 -0.098
322885.720 3075993.980 -0.099
322885.921 3075993.859 -0.098
322886.091 3075993.719 -0.103
322886.215 3075993.582 -0.100
322886.372 3075993.414 -0.090
322886.528 3075993.257 -0.093
322886.662 3075993.152 -0.096
322886.834 3075993.004 -0.096
322886.972 3075992.853 -0.103
322887.096 3075992.686 -0.103
322887.261 3075992.504 -0.090
322887.387 3075992.337 -0.095
322887.525 3075992.222 -0.103
322887.679 3075992.077 -0.102
322887.825 3075991.938 -0.103
322887.948 3075991.764 -0.105
322888.085 3075991.612 -0.096
322888.208 3075991.441 -0.091
322888.383 3075991.296 -0.095
322888.506 3075991.206 -0.093
322888.676 3075991.062 -0.092
322888.811 3075990.888 -0.100
322888.920 3075990.732 -0.100
322889.070 3075990.533 -0.092
322889.232 3075990.366 -0.098
322889.367 3075990.275 -0.099
322889.550 3075990.131 -0.095
322889.705 3075989.990 -0.100
322889.828 3075989.834 -0.101
322890.002 3075989.668 -0.091
322890.156 3075989.519 -0.094
322890.329 3075989.414 -0.098
322890.507 3075989.297 -0.094
322890.676 3075989.177 -0.095
322890.825 3075989.007 -0.100
322890.987 3075988.844 -0.089
322891.125 3075988.672 -0.092
322891.299 3075988.530 -0.104
322891.442 3075988.428 -0.103
322891.617 3075988.283 -0.104
322891.765 3075988.116 -0.109
322891.927 3075987.948 -0.095
322892.078 3075987.759 -0.092
322892.265 3075987.617 -0.099
322892.416 3075987.522 -0.094
322892.593 3075987.403 -0.094
322892.745 3075987.251 -0.098
322892.901 3075987.115 -0.087
322893.049 3075986.938 -0.082
322893.238 3075986.798 -0.092
322893.375 3075986.708 -0.091
322893.569 3075986.581 -0.088
322893.738 3075986.428 -0.092
322893.875 3075986.298 -0.086
322894.062 3075986.111 -0.080
322894.248 3075985.965 -0.090
322894.386 3075985.873 -0.090
322894.605 3075985.746 -0.086
322894.784 3075985.605 -0.091
322894.929 3075985.483 -0.089
322895.118 3075985.304 -0.079
322895.311 3075985.168 -0.085
322895.457 3075985.075 -0.086
322895.667 3075984.937 -0.084
322895.844 3075984.797 -0.087
322895.986 3075984.665 -0.083
322896.186 3075984.478 -0.072
322896.370 3075984.325 -0.080
322896.512 3075984.255 -0.081
322896.712 3075984.136 -0.078
322896.877 3075983.994 -0.080
322897.017 3075983.867 -0.077
322897.203 3075983.706 -0.064
322897.364 3075983.571 -0.070
322897.519 3075983.466 -0.074
322897.702 3075983.337 -0.065
322897.870 3075983.219 -0.065
322898.031 3075983.070 -0.070
322898.227 3075982.928 -0.059
322898.360 3075982.775 -0.062
322898.529 3075982.658 -0.075
322898.663 3075982.567 -0.078
322898.843 3075982.449 -0.080
322899.012 3075982.273 -0.081
322899.151 3075982.139 -0.070
322899.295 3075981.968 -0.060
322899.459 3075981.821 -0.068
322899.584 3075981.722 -0.070
322899.762 3075981.580 -0.068
322899.907 3075981.418 -0.068
322900.028 3075981.265 -0.063
322900.194 3075981.064 -0.050
322900.353 3075980.899 -0.061
322900.492 3075980.799 -0.068
322900.687 3075980.646 -0.067
322900.851 3075980.510 -0.071
322900.996 3075980.353 -0.069
322901.193 3075980.176 -0.050
322901.347 3075980.024 -0.053
322901.519 3075979.932 -0.057
322901.705 3075979.807 -0.050
322901.883 3075979.677 -0.052
322902.033 3075979.528 -0.058
322902.193 3075979.382 -0.051
322902.351 3075979.198 -0.050
322902.553 3075979.068 -0.053
322902.718 3075978.945 -0.043
322902.881 3075978.821 -0.043
322903.024 3075978.661 -0.049
322903.158 3075978.534 -0.044
322903.298 3075978.371 -0.039
322903.475 3075978.220 -0.047
322903.594 3075978.121 -0.046
322903.783 3075977.968 -0.045
322903.943 3075977.812 -0.048
322904.075 3075977.668 -0.044
322904.238 3075977.482 -0.038
322904.418 3075977.331 -0.046
322904.559 3075977.250 -0.044
322904.767 3075977.117 -0.036
322904.927 3075976.974 -0.040
322905.057 3075976.830 -0.043
322905.249 3075976.646 -0.036
322905.418 3075976.497 -0.044
322905.574 3075976.410 -0.048
322905.770 3075976.294 -0.046
322905.935 3075976.171 -0.049
322906.066 3075976.023 -0.050
322906.247 3075975.846 -0.034
322906.411 3075975.692 -0.035
322906.580 3075975.584 -0.040
322906.755 3075975.465 -0.033
322906.926 3075975.347 -0.029
322907.082 3075975.183 -0.029
322907.248 3075975.046 -0.020
322907.398 3075974.883 -0.024
322907.568 3075974.759 -0.036
322907.711 3075974.667 -0.036
322907.885 3075974.551 -0.035
322908.040 3075974.389 -0.034
322908.186 3075974.237 -0.021
322908.321 3075974.048 -0.019
322908.502 3075973.906 -0.034
322908.630 3075973.813 -0.036
322908.828 3075973.662 -0.036
322908.998 3075973.502 -0.041
322909.139 3075973.367 -0.035
322909.309 3075973.182 -0.028
322909.480 3075973.033 -0.038
322909.607 3075972.942 -0.041
322909.799 3075972.806 -0.044
322909.950 3075972.655 -0.056
322910.077 3075972.507 -0.058
322910.252 3075972.311 -0.040
322910.411 3075972.156 -0.039
322910.566 3075972.066 -0.039
322910.752 3075971.928 -0.032
322910.923 3075971.794 -0.037
322911.065 3075971.635 -0.041
322911.244 3075971.477 -0.030
322911.397 3075971.312 -0.032
322911.571 3075971.192 -0.036
322911.750 3075971.079 -0.027
322911.926 3075970.960 -0.025
322912.073 3075970.819 -0.026
322912.232 3075970.677 -0.014
322912.383 3075970.506 -0.012
322912.562 3075970.379 -0.026
322912.701 3075970.303 -0.028
322912.894 3075970.178 -0.026
322913.073 3075970.007 -0.028
322913.226 3075969.862 -0.020
322913.381 3075969.673 -0.016
322913.580 3075969.523 -0.025
322913.727 3075969.437 -0.022
322913.936 3075969.305 -0.017
322914.105 3075969.153 -0.020
322914.240 3075969.017 -0.014
322914.406 3075968.829 -0.005
322914.593 3075968.686 -0.010
322914.728 3075968.616 -0.009
322914.923 3075968.484 -0.007
322915.081 3075968.337 -0.012
322915.215 3075968.196 -0.011
322915.399 3075968.006 -0.002
322915.571 3075967.846 -0.009
322915.729 3075967.753 -0.011
322915.938 3075967.627 -0.005
322916.115 3075967.503 -0.006
322916.278 3075967.358 -0.005
322916.477 3075967.200 0.008
322916.659 3075967.057 0.005
322916.830 3075966.957 -0.001
322917.032 3075966.861 0.002
322917.216 3075966.742 0.001
322917.375 3075966.612 0.001
322917.589 3075966.452 0.020
322917.765 3075966.291 0.018
322917.943 3075966.209 0.014
322918.132 3075966.114 0.020
322918.308 3075966.004 0.023
322918.471 3075965.869 0.022
322918.659 3075965.730 0.035
322918.830 3075965.576 0.036
322919.003 3075965.462 0.028
322919.171 3075965.376 0.028
322919.358 3075965.276 0.026
322919.527 3075965.129 0.026
322919.695 3075965.008 0.039
322919.866 3075964.851 0.047
322920.047 3075964.721 0.043
322920.178 3075964.637 0.046
322920.360 3075964.529 0.049
322920.503 3075964.381 0.046
322920.617 3075964.267 0.045
322920.779 3075964.107 0.045
322920.935 3075963.982 0.038
322921.056 3075963.891 0.037
322921.233 3075963.777 0.043
322921.372 3075963.659 0.046
322921.474 3075963.549 0.048
322921.616 3075963.422 0.054
322921.732 3075963.297 0.058
322921.851 3075963.211 0.058
322921.953 3075963.144 0.057
322922.058 3075963.052 0.058
322922.107 3075962.941 0.061
322922.178 3075962.793 0.066
322922.247 3075962.677 0.069
322922.331 3075962.607 0.071
322922.411 3075962.611 0.073
322922.486 3075962.574 0.075
322922.548 3075962.539 0.077
322922.622 3075962.467 0.080
322922.700 3075962.407 0.082
322922.788 3075962.284 0.078
322922.895 3075962.061 0.048
322923.041 3075961.845 0.039
322922.994 3075961.785 0.039
322923.009 3075961.763 0.039
322923.052 3075961.761 0.039
322923.186 3075961.747 0.039
322923.321 3075961.703 0.038
322923.424 3075961.565 0.034
322923.524 3075961.396 0.025
322923.603 3075961.253 0.022
322923.738 3075961.053 0.024
322923.894 3075960.908 0.020
322923.998 3075960.855 0.018
322924.146 3075960.704 0.017
322924.257 3075960.541 0.012
322924.347 3075960.361 0.009
322924.464 3075960.174 0.015
322924.553 3075959.987 0.011
322924.674 3075959.826 0.005
322924.773 3075959.687 0.004
322924.883 3075959.516 -0.002
322924.934 3075959.309 -0.008
322924.999 3075959.100 -0.006
322925.029 3075958.881 -0.009
322925.107 3075958.679 -0.019
322925.178 3075958.522 -0.021
322925.245 3075958.332 -0.023
322925.261 3075958.119 -0.027
322925.266 3075957.923 -0.030
322925.232 3075957.690 -0.037
322925.249 3075957.456 -0.049
322925.292 3075957.313 -0.057
322925.323 3075957.088 -0.065
322925.329 3075956.872 -0.071
322925.335 3075956.668 -0.073
322925.311 3075956.389 -0.080
322925.371 3075956.162 -0.091
322925.442 3075956.039 -0.094
322925.533 3075955.834 -0.096
322925.594 3075955.620 -0.103
322925.631 3075955.420 -0.103
322925.688 3075955.147 -0.099
322925.784 3075954.936 -0.107
322925.872 3075954.821 -0.110
322926.013 3075954.628 -0.107
322926.114 3075954.455 -0.111
322926.184 3075954.280 -0.113
322926.310 3075954.060 -0.108
322926.421 3075953.879 -0.117
322926.533 3075953.746 -0.125
322926.664 3075953.553 -0.124
322926.768 3075953.379 -0.128
322926.848 3075953.177 -0.130
322926.963 3075952.938 -0.113
322927.070 3075952.747 -0.112
322927.216 3075952.632 -0.118
322927.365 3075952.496 -0.114
322927.522 3075952.364 -0.114
322927.673 3075952.206 -0.117
322927.840 3075952.040 -0.107
322927.995 3075951.877 -0.109
322928.192 3075951.763 -0.117
322928.353 3075951.698 -0.113
322928.575 3075951.609 -0.105
322928.777 3075951.484 -0.104
322928.949 3075951.380 -0.098
322929.139 3075951.248 -0.098
322929.351 3075951.149 -0.104
322929.526 3075951.075 -0.100
322929.752 3075950.979 -0.100
322929.949 3075950.859 -0.105
322930.129 3075950.754 -0.099
322930.353 3075950.591 -0.091
322930.562 3075950.497 -0.091
322930.721 3075950.468 -0.089
322930.928 3075950.389 -0.086
322931.116 3075950.263 -0.089
322931.277 3075950.149 -0.085
322931.469 3075950.003 -0.078
322931.664 3075949.889 -0.081
322931.802 3075949.840 -0.083
322931.985 3075949.742 -0.089
322932.137 3075949.622 -0.101
322932.274 3075949.494 -0.108
322932.481 3075949.340 -0.101
322932.629 3075949.196 -0.103
322932.802 3075949.074 -0.104
322932.965 3075948.962 -0.098
322933.120 3075948.828 -0.095
322933.240 3075948.656 -0.091
322933.385 3075948.484 -0.076
322933.489 3075948.336 -0.079
322933.641 3075948.218 -0.093
322933.760 3075948.146 -0.100
322933.926 3075948.000 -0.110
322934.066 3075947.831 -0.113
322934.198 3075947.661 -0.100
322934.331 3075947.455 -0.091
322934.502 3075947.304 -0.099
322934.618 3075947.220 -0.100
322934.795 3075947.096 -0.100
322934.941 3075946.937 -0.108
322935.050 3075946.794 -0.108
322935.205 3075946.634 -0.101
322935.359 3075946.491 -0.105
322935.510 3075946.395 -0.109
322935.694 3075946.264 -0.105
322935.852 3075946.130 -0.103
322935.988 3075945.968 -0.101
322936.148 3075945.787 -0.086
322936.282 3075945.617 -0.089
322936.437 3075945.491 -0.098
322936.609 3075945.359 -0.096
322936.766 3075945.226 -0.099
322936.893 3075945.065 -0.101
322937.038 3075944.913 -0.093
322937.173 3075944.756 -0.095
322937.313 3075944.621 -0.102
322937.446 3075944.512 -0.102
322937.580 3075944.389 -0.101
322937.696 3075944.229 -0.104
322937.805 3075944.071 -0.099
322937.898 3075943.890 -0.099
322938.044 3075943.738 -0.112
322938.144 3075943.658 -0.117
322938.300 3075943.509 -0.115
322938.427 3075943.346 -0.115
322938.538 3075943.186 -0.112
322938.684 3075943.018 -0.103
322938.823 3075942.874 -0.107
322938.978 3075942.782 -0.112
322939.144 3075942.652 -0.105
322939.299 3075942.525 -0.098
322939.432 3075942.369 -0.097
322939.559 3075942.238 -0.091
322939.696 3075942.064 -0.090
322939.862 3075941.910 -0.099
322939.987 3075941.820 -0.100
322940.167 3075941.672 -0.100
322940.309 3075941.514 -0.104
322940.415 3075941.362 -0.102
322940.556 3075941.165 -0.097
322940.704 3075941.009 -0.104
322940.829 3075940.920 -0.107
322941.010 3075940.791 -0.106
322941.157 3075940.662 -0.111
322941.279 3075940.515 -0.113
322941.431 3075940.361 -0.104
322941.565 3075940.227 -0.104
322941.722 3075940.106 -0.112
322941.863 3075940.021 -0.112
322942.032 3075939.905 -0.110
322942.172 3075939.749 -0.111
322942.293 3075939.633 -0.106
322942.462 3075939.472 -0.095
322942.630 3075939.338 -0.100
322942.778 3075939.259 -0.103
322942.963 3075939.154 -0.097
322943.132 3075939.049 -0.095
322943.284 3075938.908 -0.097
322943.423 3075938.792 -0.095
322943.546 3075938.658 -0.096
322943.719 3075938.532 -0.100
322943.857 3075938.461 -0.098
322944.025 3075938.316 -0.091
322944.160 3075938.170 -0.094
322944.277 3075938.025 -0.092
322944.454 3075937.806 -0.076
322944.643 3075937.641 -0.079
322944.804 3075937.582 -0.079
322944.982 3075937.488 -0.078
322945.147 3075937.372 -0.084
322945.298 3075937.220 -0.087
322945.465 3075937.087 -0.077
322945.603 3075936.963 -0.080
322945.745 3075936.839 -0.094
322945.870 3075936.747 -0.102
322946.033 3075936.605 -0.106
322946.157 3075936.445 -0.105
322946.276 3075936.258 -0.091
322946.424 3075936.072 -0.083
322946.622 3075935.960 -0.082
322946.807 3075935.868 -0.072
322947.018 3075935.764 -0.063
322947.217 3075935.655 -0.068
322947.367 3075935.574 -0.071
322947.594 3075935.464 -0.077
322947.818 3075935.424 -0.077
322947.978 3075935.453 -0.075
322948.167 3075935.431 -0.071
322948.335 3075935.332 -0.066
322948.473 3075935.184 -0.064
322948.662 3075935.056 -0.059
322948.833 3075934.931 -0.064
322949.010 3075934.866 -0.069
322949.200 3075934.732 -0.071
322949.356 3075934.589 -0.077
322949.485 3075934.419 -0.082
322949.675 3075934.210 -0.079
322949.840 3075934.049 -0.091
322949.990 3075933.958 -0.097
322950.191 3075933.790 -0.096
322950.330 3075933.628 -0.094
322950.450 3075933.486 -0.085
322950.573 3075933.304 -0.078
322950.729 3075933.165 -0.085
322950.866 3075933.091 -0.086
322951.036 3075932.953 -0.076
322951.177 3075932.812 -0.074
322951.293 3075932.640 -0.075
322951.437 3075932.474 -0.064
322951.555 3075932.290 -0.065
322951.711 3075932.146 -0.077
322951.835 3075932.082 -0.079
322952.006 3075931.923 -0.084
322952.152 3075931.746 -0.095
322952.276 3075931.590 -0.093
322952.446 3075931.370 -0.086
322952.618 3075931.194 -0.100
322952.746 3075931.093 -0.104
322952.919 3075930.946 -0.108
322953.056 3075930.772 -0.113
322953.170 3075930.617 -0.109
322953.310 3075930.427 -0.101
322953.478 3075930.266 -0.101
322953.599 3075930.168 -0.097
322953.754 3075930.050 -0.091
322953.899 3075929.890 -0.092
322954.010 3075929.727 -0.089
322954.146 3075929.552 -0.077
322954.271 3075929.398 -0.079
322954.412 3075929.262 -0.085
322954.540 3075929.160 -0.083
322954.697 3075929.019 -0.081
322954.826 3075928.842 -0.081
322954.939 3075928.670 -0.070
322955.066 3075928.472 -0.063
322955.212 3075928.316 -0.075
322955.312 3075928.218 -0.078
322955.479 3075928.064 -0.076
322955.612 3075927.909 -0.073
322955.719 3075927.762 -0.066
322955.867 3075927.571 -0.052
322956.011 3075927.421 -0.059
322956.135 3075927.321 -0.066
322956.293 3075927.183 -0.068
322956.433 3075927.026 -0.075
322956.543 3075926.861 -0.079
322956.685 3075926.674 -0.071
322956.818 3075926.485 -0.077
322956.980 3075926.376 -0.086
322957.138 3075926.246 -0.083
322957.294 3075926.123 -0.084
322957.433 3075925.959 -0.088
322957.576 3075925.812 -0.078
322957.703 3075925.634 -0.071
322957.871 3075925.496 -0.077
322957.984 3075925.418 -0.076
322958.169 3075925.279 -0.074
322958.299 3075925.113 -0.078
322958.409 3075924.966 -0.074
322958.556 3075924.790 -0.066
322958.694 3075924.640 -0.078
322958.835 3075924.538 -0.086
322958.986 3075924.419 -0.087
322959.131 3075924.293 -0.089
322959.276 3075924.135 -0.092
322959.439 3075923.978 -0.081
322959.577 3075923.793 -0.078
322959.755 3075923.656 -0.085
322959.897 3075923.561 -0.081
322960.081 3075923.436 -0.076
322960.235 3075923.268 -0.079
322960.355 3075923.124 -0.075
322960.486 3075922.944 -0.072
322960.649 3075922.796 -0.084
322960.779 3075922.706 -0.086
322960.969 3075922.565 -0.084
322961.124 3075922.403 -0.084
322961.260 3075922.242 -0.077
322961.413 3075922.066 -0.069
322961.571 3075921.902 -0.079
322961.698 3075921.814 -0.083
322961.879 3075921.670 -0.085
322962.021 3075921.520 -0.093
322962.132 3075921.366 -0.095
322962.287 3075921.182 -0.086
322962.423 3075921.032 -0.089
322962.572 3075920.917 -0.095
322962.724 3075920.791 -0.089
322962.893 3075920.654 -0.087
322963.051 3075920.495 -0.090
322963.205 3075920.366 -0.084
322963.375 3075920.191 -0.088
322963.543 3075920.084 -0.098
322963.685 3075920.010 -0.101
322963.846 3075919.916 -0.102
322963.988 3075919.773 -0.098
322964.132 3075919.615 -0.083
322964.256 3075919.446 -0.081
322964.412 3075919.296 -0.092
322964.526 3075919.202 -0.093
322964.696 3075919.066 -0.093
322964.836 3075918.893 -0.096
322964.964 3075918.742 -0.089
322965.086 3075918.565 -0.081
322965.224 3075918.397 -0.089
322965.349 3075918.297 -0.092
322965.508 3075918.144 -0.091
322965.635 3075917.979 -0.094
322965.739 3075917.812 -0.092
322965.892 3075917.605 -0.081
322966.041 3075917.433 -0.086
322966.180 3075917.351 -0.089
322966.362 3075917.245 -0.090
322966.530 3075917.136 -0.096
322966.683 3075917.011 -0.101
322966.860 3075916.876 -0.095
322967.020 3075916.741 -0.094
322967.195 3075916.650 -0.096
322967.349 3075916.571 -0.093
322967.530 3075916.483 -0.088
322967.706 3075916.356 -0.087
322967.862 3075916.241 -0.082
322968.046 3075916.090 -0.081
322968.237 3075915.992 -0.088
322968.377 3075915.931 -0.089
322968.571 3075915.858 -0.088
322968.730 3075915.746 -0.089
322968.864 3075915.642 -0.089
322969.036 3075915.495 -0.081
322969.196 3075915.351 -0.086
322969.345 3075915.250 -0.089
322969.535 3075915.134 -0.081
322969.700 3075915.020 -0.083
322969.853 3075914.871 -0.092
322970.038 3075914.737 -0.089
322970.185 3075914.589 -0.089
322970.356 3075914.464 -0.094
322970.508 3075914.379 -0.091
322970.692 3075914.265 -0.091
322970.861 3075914.114 -0.090
322971.019 3075913.969 -0.075
322971.165 3075913.805 -0.072
322971.339 3075913.658 -0.086
322971.472 3075913.554 -0.086
322971.650 3075913.420 -0.087
322971.809 3075913.264 -0.097
322971.949 3075913.117 -0.092
322972.111 3075912.933 -0.083
322972.275 3075912.780 -0.090
322972.396 3075912.700 -0.092
322972.579 3075912.556 -0.095
322972.730 3075912.409 -0.101
322972.858 3075912.268 -0.096
322973.026 3075912.079 -0.080
322973.181 3075911.923 -0.086
322973.318 3075911.842 -0.091
322973.495 3075911.727 -0.090
322973.640 3075911.610 -0.091
322973.789 3075911.474 -0.093
322973.958 3075911.336 -0.084
322974.098 3075911.177 -0.085
322974.278 3075911.067 -0.091
322974.424 3075910.987 -0.090
322974.594 3075910.883 -0.088
322974.745 3075910.730 -0.092
322974.863 3075910.604 -0.088
322975.014 3075910.429 -0.080
322975.171 3075910.270 -0.086
322975.289 3075910.167 -0.089
322975.460 3075910.007 -0.088
322975.598 3075909.854 -0.092
322975.718 3075909.704 -0.093
322975.882 3075909.508 -0.087
322976.030 3075909.336 -0.096
322976.163 3075909.230 -0.100
322976.339 3075909.100 -0.097
322976.484 3075908.959 -0.097
322976.601 3075908.791 -0.096
322976.754 3075908.620 -0.082
322976.884 3075908.449 -0.083
322977.030 3075908.312 -0.091
322977.162 3075908.194 -0.093
322977.303 3075908.060 -0.096
322977.436 3075907.876 -0.102
322977.583 3075907.701 -0.090
322977.713 3075907.501 -0.082
322977.888 3075907.354 -0.091
322978.010 3075907.263 -0.093
322978.181 3075907.149 -0.098
322978.326 3075906.994 -0.110
322978.458 3075906.861 -0.113
322978.637 3075906.689 -0.104
322978.805 3075906.542 -0.108
322978.951 3075906.441 -0.111
322979.132 3075906.334 -0.109
322979.283 3075906.214 -0.108
322979.405 3075906.042 -0.103
322979.551 3075905.875 -0.089
322979.684 3075905.722 -0.089
322979.824 3075905.601 -0.096
322979.966 3075905.477 -0.095
322980.114 3075905.365 -0.094
322980.255 3075905.196 -0.095
322980.381 3075905.057 -0.090
322980.515 3075904.883 -0.084
322980.684 3075904.744 -0.087
322980.809 3075904.681 -0.086
322980.979 3075904.570 -0.084
322981.126 3075904.443 -0.090
322981.242 3075904.312 -0.093
322981.393 3075904.180 -0.089
322981.510 3075904.067 -0.091
322981.657 3075903.966 -0.096
322981.769 3075903.922 -0.097
322981.933 3075903.828 -0.094
322982.054 3075903.701 -0.086
322982.148 3075903.572 -0.075
322982.274 3075903.457 -0.051
322982.380 3075903.376 -0.037
322982.485 3075903.378 -0.032
322982.613 3075903.407 -0.029
322982.694 3075903.427 -0.027
322982.767 3075903.449 -0.026
322982.819 3075903.485 -0.026
322982.859 3075903.490 -0.025
322982.894 3075903.440 -0.023
322982.930 3075903.321 -0.019
322982.983 3075903.135 -0.022
322983.071 3075902.839 -0.060
322983.039 3075902.575 -0.068
322983.035 3075902.557 -0.068
322983.084 3075902.536 -0.069
322983.122 3075902.539 -0.069
322983.189 3075902.584 -0.070
322983.257 3075902.505 -0.072
322983.383 3075902.482 -0.076
322983.522 3075902.398 -0.088
322983.643 3075902.266 -0.102
322983.742 3075902.132 -0.106
322983.882 3075901.989 -0.104
322984.044 3075901.885 -0.107
322984.179 3075901.850 -0.108
322984.352 3075901.768 -0.110
322984.488 3075901.659 -0.114
322984.597 3075901.510 -0.119
322984.702 3075901.372 -0.115
322984.818 3075901.237 -0.109
322984.963 3075901.104 -0.106
322985.080 3075901.038 -0.102
322985.230 3075900.907 -0.095
322985.346 3075900.759 -0.095
322985.427 3075900.596 -0.097
322985.533 3075900.403 -0.093
322985.647 3075900.246 -0.099
322985.802 3075900.129 -0.110
322985.934 3075900.044 -0.112
322986.095 3075899.926 -0.112
322986.254 3075899.789 -0.117
322986.394 3075899.636 -0.115
322986.560 3075899.464 -0.111
322986.736 3075899.332 -0.119
322986.871 3075899.276 -0.122
322987.053 3075899.177 -0.121
322987.215 3075899.065 -0.120
322987.356 3075898.927 -0.114
322987.519 3075898.780 -0.101
322987.655 3075898.632 -0.103
322987.799 3075898.538 -0.109
322987.952 3075898.452 -0.112
322988.105 3075898.340 -0.116
322988.235 3075898.189 -0.122
322988.364 3075898.033 -0.120
322988.498 3075897.854 -0.117
322988.671 3075897.716 -0.122
322988.812 3075897.648 -0.121
322989.001 3075897.519 -0.118
322989.161 3075897.377 -0.124
322989.298 3075897.236 -0.124
322989.478 3075897.078 -0.116
322989.644 3075896.952 -0.118
322989.775 3075896.880 -0.119
322989.945 3075896.781 -0.117
322990.100 3075896.665 -0.116
322990.235 3075896.529 -0.114
322990.391 3075896.399 -0.107
322990.539 3075896.275 -0.111
322990.697 3075896.185 -0.121
322990.839 3075896.103 -0.126
322990.988 3075895.988 -0.128
322991.139 3075895.831 -0.130
322991.276 3075895.695 -0.124
322991.428 3075895.534 -0.116
322991.588 3075895.399 -0.120
322991.695 3075895.320 -0.122
322991.843 3075895.180 -0.125
322991.972 3075895.027 -0.130
322992.074 3075894.870 -0.128
322992.212 3075894.677 -0.117
322992.361 3075894.510 -0.123
322992.516 3075894.403 -0.127
322992.714 3075894.256 -0.116
322992.884 3075894.097 -0.114
322993.020 3075893.904 -0.116
322993.181 3075893.718 -0.102
322993.338 3075893.535 -0.107
322993.506 3075893.418 -0.117
322993.667 3075893.303 -0.114
322993.832 3075893.180 -0.116
322993.991 3075893.028 -0.118
322994.171 3075892.879 -0.104
322994.367 3075892.712 -0.107
322994.551 3075892.580 -0.118
322994.730 3075892.455 -0.114
322994.904 3075892.323 -0.116
322995.033 3075892.163 -0.121
322995.198 3075891.984 -0.112
322995.358 3075891.801 -0.121
322995.523 3075891.691 -0.130
322995.704 3075891.564 -0.128
322995.869 3075891.438 -0.133
322996.012 3075891.269 -0.140
322996.192 3075891.109 -0.130
322996.338 3075890.953 -0.134
322996.495 3075890.818 -0.143
322996.656 3075890.696 -0.141
322996.823 3075890.562 -0.143
322996.977 3075890.398 -0.148
322997.167 3075890.221 -0.137
322997.348 3075890.036 -0.141
322997.509 3075889.952 -0.143
322997.714 3075889.836 -0.139
322997.880 3075889.712 -0.140
322998.026 3075889.559 -0.141
322998.212 3075889.382 -0.130
322998.381 3075889.225 -0.139
322998.536 3075889.129 -0.147
322998.719 3075888.991 -0.145
322998.878 3075888.862 -0.146
322999.009 3075888.722 -0.146
322999.178 3075888.574 -0.138
322999.332 3075888.435 -0.145
322999.491 3075888.338 -0.156
322999.655 3075888.231 -0.159
322999.818 3075888.117 -0.160
322999.975 3075887.952 -0.163
323000.113 3075887.825 -0.155
323000.268 3075887.646 -0.149
323000.447 3075887.517 -0.152
323000.577 3075887.422 -0.149
323000.747 3075887.299 -0.146
323000.891 3075887.150 -0.147
323001.006 3075887.025 -0.144
323001.138 3075886.850 -0.145
323001.294 3075886.720 -0.158
323001.412 3075886.655 -0.164
323001.597 3075886.537 -0.168
323001.747 3075886.411 -0.172
323001.887 3075886.281 -0.171
323002.057 3075886.131 -0.160
323002.200 3075885.985 -0.161
323002.353 3075885.879 -0.166
323002.501 3075885.792 -0.164
323002.653 3075885.697 -0.162
323002.800 3075885.541 -0.163
323002.942 3075885.402 -0.156
323003.093 3075885.213 -0.149
323003.282 3075885.073 -0.159
323003.417 3075884.985 -0.162
323003.615 3075884.864 -0.163
323003.777 3075884.718 -0.162
323003.910 3075884.582 -0.151
323004.052 3075884.406 -0.137
323004.218 3075884.274 -0.136
323004.359 3075884.173 -0.133
323004.535 3075884.082 -0.127
323004.691 3075883.937 -0.126
323004.815 3075883.776 -0.121
323004.965 3075883.596 -0.105
323005.075 3075883.468 -0.105
323005.243 3075883.399 -0.111
323005.411 3075883.382 -0.114
323005.649 3075883.340 -0.114
323005.883 3075883.291 -0.117
323006.099 3075883.222 -0.118
323006.428 3075883.168 -0.106
323006.716 3075883.168 -0.103
323006.898 3075883.227 -0.103
323007.087 3075883.274 -0.103
323007.280 3075883.233 -0.102
323007.426 3075883.168 -0.101
323007.578 3075883.132 -0.099
323007.741 3075883.110 -0.095
323007.884 3075883.097 -0.090
323008.086 3075883.008 -0.082
323008.237 3075882.882 -0.082
323008.357 3075882.733 -0.084
323008.524 3075882.566 -0.079
323008.694 3075882.414 -0.085
323008.856 3075882.320 -0.090
323009.035 3075882.200 -0.091
323009.187 3075882.072 -0.096
323009.306 3075881.913 -0.101
323009.464 3075881.747 -0.095
323009.619 3075881.593 -0.100
323009.782 3075881.484 -0.106
323009.951 3075881.372 -0.102
323010.117 3075881.249 -0.100
323010.254 3075881.089 -0.103
323010.400 3075880.951 -0.098
323010.548 3075880.786 -0.101
323010.721 3075880.667 -0.111
323010.854 3075880.602 -0.111
323011.041 3075880.484 -0.109
323011.201 3075880.322 -0.111
323011.304 3075880.193 -0.108
323011.470 3075880.017 -0.101
323011.639 3075879.874 -0.108
323011.775 3075879.780 -0.107
323011.980 3075879.630 -0.099
323012.143 3075879.490 -0.104
323012.266 3075879.349 -0.109
323012.457 3075879.171 -0.109
323012.628 3075879.020 -0.120
323012.777 3075878.911 -0.127
323012.982 3075878.776 -0.128
323013.136 3075878.630 -0.132
323013.281 3075878.478 -0.132
323013.445 3075878.288 -0.126
323013.603 3075878.126 -0.134
323013.749 3075878.026 -0.137
323013.943 3075877.869 -0.134
323014.095 3075877.722 -0.142
323014.210 3075877.577 -0.149
323014.411 3075877.382 -0.143
323014.584 3075877.210 -0.129
323014.751 3075877.051 -0.110
323014.933 3075876.929 -0.108
323015.065 3075876.760 -0.112
323015.143 3075876.589 -0.103
323015.270 3075876.397 -0.094
323015.427 3075876.267 -0.102
323015.556 3075876.189 -0.104
323015.744 3075876.036 -0.107
323015.888 3075875.881 -0.116
323016.003 3075875.697 -0.121
323016.172 3075875.497 -0.114
323016.325 3075875.337 -0.124
323016.495 3075875.225 -0.133
323016.667 3075875.130 -0.133
323016.844 3075875.018 -0.134
323017.022 3075874.890 -0.134
323017.216 3075874.747 -0.124
323017.398 3075874.587 -0.126
323017.603 3075874.479 -0.131
323017.772 3075874.402 -0.130
323017.944 3075874.307 -0.132
323018.097 3075874.151 -0.135
323018.290 3075873.993 -0.123
323018.458 3075873.839 -0.124
323018.627 3075873.745 -0.127
323018.793 3075873.654 -0.123
323018.964 3075873.534 -0.122
323019.113 3075873.384 -0.125
323019.274 3075873.233 -0.119
323019.417 3075873.066 -0.124
323019.588 3075872.947 -0.133
323019.739 3075872.836 -0.129
323019.897 3075872.693 -0.126
323020.038 3075872.525 -0.130
323020.173 3075872.393 -0.126
323020.298 3075872.227 -0.125
323020.467 3075872.085 -0.133
323020.598 3075871.977 -0.131
323020.771 3075871.853 -0.126
323020.911 3075871.689 -0.129
323021.022 3075871.539 -0.125
323021.164 3075871.342 -0.120
323021.316 3075871.183 -0.131
323021.442 3075871.089 -0.135
323021.623 3075870.958 -0.132
323021.767 3075870.817 -0.132
323021.885 3075870.652 -0.132
323022.044 3075870.465 -0.121
323022.184 3075870.283 -0.127
323022.343 3075870.163 -0.133
323022.490 3075870.047 -0.129
323022.632 3075869.913 -0.128
323022.752 3075869.744 -0.132
323022.891 3075869.563 -0.124
323023.008 3075869.373 -0.128
323023.169 3075869.226 -0.144
323023.296 3075869.134 -0.146
323023.461 3075868.991 -0.146
323023.611 3075868.814 -0.147
323023.744 3075868.653 -0.138
323023.884 3075868.459 -0.133
323024.055 3075868.319 -0.142
323024.190 3075868.239 -0.142
323024.372 3075868.108 -0.139
323024.523 3075867.960 -0.148
323024.647 3075867.818 -0.156
323024.822 3075867.635 -0.158
323024.999 3075867.502 -0.163
323025.156 3075867.404 -0.162
323025.342 3075867.284 -0.156
323025.479 3075867.141 -0.151
323025.586 3075866.996 -0.144
323025.697 3075866.843 -0.137
323025.824 3075866.712 -0.142
323025.957 3075866.638 -0.147
323026.093 3075866.532 -0.148
323026.237 3075866.420 -0.144
323026.359 3075866.273 -0.138
323026.476 3075866.148 -0.130
323026.603 3075866.002 -0.120
323026.740 3075865.876 -0.120
323026.878 3075865.787 -0.121
323027.002 3075865.698 -0.119
323027.144 3075865.603 -0.118
323027.273 3075865.454 -0.118
323027.379 3075865.315 -0.112
323027.512 3075865.140 -0.101
323027.661 3075864.997 -0.104
323027.792 3075864.925 -0.106
323027.950 3075864.838 -0.105
323028.094 3075864.725 -0.107
323028.218 3075864.573 -0.111
323028.322 3075864.423 -0.110
323028.409 3075864.289 -0.110
323028.538 3075864.177 -0.114
323028.655 3075864.106 -0.118
323028.804 3075864.015 -0.122
323028.929 3075863.889 -0.130
323029.000 3075863.743 -0.134
323029.125 3075863.560 -0.131
323029.234 3075863.424 -0.131
323029.379 3075863.354 -0.136
323029.521 3075863.308 -0.138
323029.680 3075863.206 -0.136
323029.829 3075863.068 -0.133
323029.932 3075862.922 -0.128
323030.076 3075862.767 -0.120
323030.215 3075862.652 -0.123
323030.358 3075862.602 -0.127
323030.517 3075862.536 -0.131
323030.662 3075862.440 -0.136
323030.788 3075862.298 -0.147
323030.894 3075862.159 -0.153
323031.036 3075862.044 -0.155
323031.190 3075861.950 -0.157
323031.324 3075861.922 -0.158
323031.487 3075861.850 -0.158
323031.635 3075861.752 -0.156
323031.762 3075861.634 -0.155
323031.890 3075861.490 -0.149
323032.036 3075861.349 -0.146
323032.209 3075861.263 -0.149
323032.358 3075861.227 -0.153
323032.537 3075861.112 -0.157
323032.673 3075860.989 -0.156
323032.795 3075860.853 -0.147
323032.972 3075860.685 -0.126
323033.156 3075860.546 -0.121
323033.331 3075860.496 -0.119
323033.503 3075860.428 -0.112
323033.677 3075860.331 -0.109
323033.830 3075860.187 -0.107
323033.977 3075860.055 -0.099
323034.138 3075859.919 -0.096
323034.314 3075859.835 -0.100
323034.443 3075859.802 -0.101
323034.625 3075859.706 -0.104
323034.787 3075859.552 -0.109
323034.916 3075859.399 -0.105
323035.088 3075859.220 -0.100
323035.265 3075859.073 -0.111
323035.391 3075859.015 -0.116
323035.576 3075858.893 -0.123
323035.725 3075858.752 -0.135
323035.852 3075858.593 -0.143
323036.021 3075858.434 -0.140
323036.181 3075858.274 -0.143
323036.336 3075858.130 -0.145
323036.495 3075857.996 -0.145
323036.630 3075857.822 -0.152
323036.729 3075857.637 -0.157
323036.860 3075857.434 -0.159
323036.997 3075857.281 -0.173
323037.131 3075857.212 -0.184
323037.285 3075857.054 -0.197
323037.412 3075856.883 -0.207
323037.521 3075856.707 -0.208
323037.658 3075856.549 -0.197
323037.767 3075856.405 -0.187
323037.915 3075856.304 -0.178
323038.074 3075856.239 -0.167
323038.216 3075856.173 -0.159
323038.375 3075856.073 -0.154
323038.539 3075855.955 -0.152
323038.703 3075855.837 -0.144
323038.829 3075855.741 -0.139
323038.997 3075855.658 -0.139
323039.163 3075855.597 -0.135
323039.369 3075855.506 -0.123
323039.552 3075855.396 -0.120
323039.694 3075855.223 -0.118
323039.871 3075855.066 -0.107
323040.024 3075854.920 -0.111
323040.190 3075854.827 -0.117
323040.363 3075854.719 -0.111
323040.543 3075854.611 -0.111
323040.708 3075854.445 -0.116
323040.865 3075854.295 -0.105
323041.005 3075854.139 -0.102
323041.177 3075853.985 -0.113
323041.307 3075853.916 -0.114
323041.477 3075853.767 -0.115
323041.620 3075853.597 -0.118
323041.744 3075853.435 -0.110
323041.892 3075853.244 -0.110
323042.078 3075853.096 -0.123
323042.216 3075853.021 -0.125
323042.392 3075852.921 -0.127
323042.537 3075852.785 -0.132
323042.649 3075852.652 -0.132
323042.795 3075852.477 -0.125
323042.939 3075852.339 -0.131
323043.072 3075852.249 -0.135
323043.231 3075852.133 -0.131
323043.379 3075852.013 -0.126
323043.514 3075851.849 -0.124
323043.638 3075851.711 -0.120
323043.755 3075851.543 -0.119
323043.911 3075851.411 -0.124
323044.019 3075851.367 -0.125
323044.187 3075851.225 -0.123
323044.315 3075851.072 -0.129
323044.414 3075850.923 -0.131
323044.555 3075850.746 -0.125
323044.674 3075850.584 -0.130
323044.821 3075850.472 -0.135
323044.951 3075850.364 -0.132
323045.099 3075850.234 -0.130
323045.232 3075850.073 -0.131
323045.357 3075849.930 -0.125
323045.490 3075849.743 -0.121
323045.661 3075849.603 -0.126
323045.781 3075849.524 -0.126
323045.949 3075849.389 -0.123
323046.079 3075849.224 -0.130
323046.151 3075849.075 -0.133
323046.302 3075848.884 -0.126
323046.414 3075848.723 -0.130
323046.544 3075848.584 -0.137
323046.666 3075848.486 -0.137
323046.803 3075848.340 -0.139
323046.918 3075848.151 -0.143
323047.031 3075847.992 -0.136
323047.142 3075847.818 -0.131
323047.288 3075847.674 -0.136
323047.406 3075847.602 -0.136
323047.573 3075847.436 -0.133
