323128.200 3075895.325 1.606
323128.199 3075895.329 1.597
323128.202 3075895.327 1.603
323128.203 3075895.327 1.608
323128.206 3075895.326 1.611
323128.209 3075895.323 1.618
323128.211 3075895.323 1.612
323128.213 3075895.318 1.618
323128.218 3075895.313 1.625
323128.219 3075895.310 1.620
323128.223 3075895.308 1.618
323128.226 3075895.310 1.616
323128.228 3075895.315 1.621
323128.220 3075895.310 1.625
323128.222 3075895.312 1.618
323128.219 3075895.314 1.623
323128.223 3075895.312 1.628
323128.224 3075895.316 1.624
323128.215 3075895.323 1.612
323128.219 3075895.324 1.614
323128.218 3075895.322 1.615
323128.217 3075895.310 1.613
323128.218 3075895.307 1.618
323128.219 3075895.307 1.633
323128.216 3075895.314 1.642
323128.220 3075895.312 1.650
323128.232 3075895.304 1.666
323128.230 3075895.307 1.669
323128.233 3075895.302 1.670
323128.238 3075895.298 1.660
323128.232 3075895.300 1.643
323128.228 3075895.304 1.635
323128.220 3075895.310 1.621
323128.213 3075895.321 1.611
323128.212 3075895.327 1.607
323128.210 3075895.327 1.609
323128.215 3075895.326 1.605
323128.221 3075895.327 1.605
323128.223 3075895.323 1.602
323128.225 3075895.319 1.612
323128.227 3075895.318 1.610
323128.223 3075895.316 1.616
323128.221 3075895.318 1.621
323128.228 3075895.314 1.629
323128.237 3075895.307 1.643
323128.250 3075895.300 1.652
323128.253 3075895.299 1.651
323128.251 3075895.306 1.649
323128.253 3075895.303 1.649
323128.250 3075895.303 1.644
323128.255 3075895.303 1.650
323128.251 3075895.305 1.647
323128.250 3075895.301 1.645
323128.247 3075895.301 1.645
323128.246 3075895.301 1.649
323128.242 3075895.301 1.643
323128.242 3075895.303 1.657
323128.240 3075895.304 1.649
323128.247 3075895.299 1.653
323128.246 3075895.300 1.644
323128.240 3075895.304 1.643
323128.239 3075895.309 1.647
323128.241 3075895.310 1.645
323128.241 3075895.307 1.651
323128.245 3075895.307 1.654
323128.246 3075895.302 1.659
323128.244 3075895.300 1.651
323128.242 3075895.298 1.654
323128.240 3075895.295 1.649
323128.233 3075895.294 1.645
323128.231 3075895.294 1.647
323128.229 3075895.298 1.641
323128.224 3075895.301 1.634
323128.223 3075895.302 1.636
323128.221 3075895.303 1.637
323128.221 3075895.305 1.634
323128.220 3075895.307 1.627
323128.222 3075895.311 1.630
323128.225 3075895.306 1.638
323128.232 3075895.308 1.652
323128.237 3075895.311 1.653
323128.243 3075895.308 1.656
323128.247 3075895.306 1.660
323128.247 3075895.307 1.662
323128.247 3075895.304 1.662
323128.246 3075895.304 1.661
323128.251 3075895.305 1.664
323128.251 3075895.305 1.663
323128.252 3075895.310 1.656
323128.253 3075895.309 1.662
323128.256 3075895.308 1.658
323128.260 3075895.308 1.666
323128.263 3075895.305 1.667
323128.262 3075895.298 1.662
323128.264 3075895.296 1.666
323128.263 3075895.292 1.664
323128.260 3075895.292 1.668
323128.256 3075895.301 1.667
323128.254 3075895.304 1.666
323128.252 3075895.305 1.667
323128.254 3075895.302 1.660
323128.258 3075895.303 1.668
323128.262 3075895.302 1.669
323128.262 3075895.303 1.672
323128.264 3075895.303 1.671
323128.271 3075895.303 1.675
323128.276 3075895.299 1.675
323128.281 3075895.297 1.676
323128.281 3075895.297 1.675
323128.282 3075895.295 1.672
323128.285 3075895.293 1.676
323128.284 3075895.292 1.678
323128.284 3075895.288 1.681
323128.282 3075895.282 1.672
323128.278 3075895.284 1.670
323128.273 3075895.289 1.668
323128.265 3075895.297 1.662
323128.260 3075895.307 1.668
323128.260 3075895.312 1.662
323128.258 3075895.316 1.660
323128.264 3075895.319 1.667
323128.266 3075895.316 1.675
323128.270 3075895.312 1.675
323128.274 3075895.300 1.676
323128.277 3075895.297 1.676
323128.272 3075895.292 1.665
323128.266 3075895.295 1.663
323128.263 3075895.296 1.662
323128.260 3075895.300 1.656
323128.255 3075895.298 1.655
323128.254 3075895.302 1.648
323128.256 3075895.303 1.650
323128.255 3075895.301 1.648
323128.253 3075895.302 1.649
323128.254 3075895.305 1.646
323128.255 3075895.308 1.644
323128.253 3075895.309 1.641
323128.255 3075895.312 1.647
323128.249 3075895.311 1.638
323128.244 3075895.312 1.636
323128.246 3075895.311 1.636
323128.246 3075895.311 1.635
323128.244 3075895.312 1.626
323128.246 3075895.314 1.627
323128.250 3075895.312 1.629
323128.255 3075895.313 1.641
323128.256 3075895.309 1.649
323128.259 3075895.307 1.649
323128.261 3075895.305 1.645
323128.262 3075895.306 1.649
323128.262 3075895.308 1.656
323128.262 3075895.307 1.656
323128.263 3075895.307 1.666
323128.264 3075895.305 1.663
323128.276 3075895.295 1.675
323128.272 3075895.296 1.665
323128.269 3075895.301 1.662
323128.265 3075895.301 1.658
323128.263 3075895.304 1.658
323128.262 3075895.304 1.661
323128.257 3075895.302 1.654
323128.258 3075895.304 1.661
323128.257 3075895.301 1.664
323128.260 3075895.301 1.670
323128.261 3075895.298 1.670
323128.265 3075895.300 1.669
323128.267 3075895.295 1.677
323128.271 3075895.294 1.675
323128.270 3075895.292 1.671
323128.267 3075895.287 1.663
323128.254 3075895.292 1.648
323128.247 3075895.297 1.648
323128.240 3075895.304 1.642
323128.239 3075895.305 1.650
323128.226 3075895.309 1.640
323128.221 3075895.309 1.640
323128.221 3075895.310 1.635
323128.218 3075895.317 1.626
323128.223 3075895.316 1.631
323128.228 3075895.314 1.634
323128.237 3075895.314 1.631
323128.242 3075895.306 1.641
323128.236 3075895.310 1.641
323128.232 3075895.306 1.652
323128.227 3075895.303 1.645
323128.224 3075895.302 1.653
323128.225 3075895.302 1.653
323128.213 3075895.303 1.644
323128.209 3075895.305 1.649
323128.209 3075895.310 1.647
323128.211 3075895.309 1.644
323128.208 3075895.313 1.647
323128.211 3075895.318 1.652
323128.215 3075895.318 1.652
