323095.360 3075879.472 2.050
323095.370 3075879.473 2.055
323095.358 3075879.467 2.084
323095.321 3075879.458 2.077
323095.263 3075879.397 2.064
323095.299 3075879.316 2.135
323095.320 3075879.245 2.155
323095.229 3075879.166 2.167
323095.066 3075879.039 2.135
323094.947 3075878.980 2.162
323094.872 3075878.869 2.156
323094.817 3075878.754 2.137
323094.859 3075878.705 2.185
323094.785 3075878.568 2.167
323094.697 3075878.456 2.100
323094.566 3075878.402 2.096
323094.485 3075878.357 2.117
323094.448 3075878.310 2.110
323094.439 3075878.239 2.100
323094.450 3075878.153 2.091
323094.475 3075878.041 2.061
323094.516 3075877.938 2.043
323094.510 3075877.842 2.046
323094.439 3075877.778 2.048
323094.293 3075877.726 2.001
323094.211 3075877.716 1.994
323094.129 3075877.615 1.964
323094.056 3075877.481 1.912
323094.001 3075877.367 1.927
323093.865 3075877.263 1.885
323093.701 3075877.192 1.836
323093.569 3075877.082 1.839
323093.484 3075876.947 1.833
323093.449 3075876.807 1.829
323093.434 3075876.705 1.851
323093.316 3075876.575 1.840
323093.148 3075876.479 1.765
323092.944 3075876.378 1.720
323092.791 3075876.267 1.726
323092.713 3075876.173 1.719
323092.638 3075876.046 1.681
323092.558 3075875.926 1.656
323092.444 3075875.802 1.671
323092.320 3075875.715 1.674
323092.171 3075875.558 1.632
323092.036 3075875.430 1.644
323091.939 3075875.274 1.637
323091.866 3075875.094 1.606
323091.869 3075874.967 1.595
323091.793 3075874.812 1.617
323091.662 3075874.682 1.610
323091.528 3075874.525 1.576
323091.393 3075874.385 1.582
323091.271 3075874.238 1.602
323091.200 3075874.098 1.592
323091.197 3075873.996 1.577
323091.167 3075873.892 1.607
323091.043 3075873.785 1.601
323090.877 3075873.707 1.540
323090.747 3075873.703 1.554
323090.687 3075873.632 1.555
323090.563 3075873.486 1.528
323090.440 3075873.347 1.523
323090.284 3075873.226 1.533
323090.102 3075873.115 1.521
323089.942 3075873.030 1.505
323089.803 3075872.922 1.521
323089.699 3075872.799 1.512
323089.619 3075872.654 1.481
323089.558 3075872.534 1.508
323089.456 3075872.414 1.528
323089.306 3075872.333 1.514
323089.154 3075872.285 1.508
323089.039 3075872.224 1.523
323088.960 3075872.125 1.515
323088.832 3075871.978 1.477
323088.746 3075871.873 1.490
323088.607 3075871.759 1.504
323088.454 3075871.677 1.494
323088.280 3075871.560 1.450
323088.118 3075871.453 1.462
323087.990 3075871.331 1.458
323087.906 3075871.196 1.436
323087.898 3075871.066 1.410
323087.830 3075870.926 1.430
323087.702 3075870.815 1.433
323087.512 3075870.703 1.399
323087.341 3075870.619 1.423
323087.194 3075870.478 1.435
323087.075 3075870.298 1.397
323087.049 3075870.176 1.413
323086.940 3075870.027 1.428
323086.784 3075869.911 1.426
323086.595 3075869.779 1.369
323086.448 3075869.680 1.406
323086.349 3075869.565 1.406
323086.201 3075869.393 1.355
323086.127 3075869.261 1.377
323085.978 3075869.108 1.379
323085.826 3075869.013 1.383
323085.627 3075868.880 1.313
323085.458 3075868.739 1.337
323085.342 3075868.584 1.330
323085.286 3075868.443 1.287
323085.233 3075868.305 1.315
323085.064 3075868.146 1.314
323084.876 3075868.018 1.260
323084.706 3075867.917 1.289
323084.568 3075867.771 1.287
323084.484 3075867.597 1.261
323084.444 3075867.462 1.238
323084.311 3075867.302 1.254
323084.128 3075867.179 1.250
323083.953 3075867.039 1.182
323083.805 3075866.914 1.205
323083.700 3075866.771 1.197
323083.582 3075866.610 1.149
323083.510 3075866.473 1.178
323083.397 3075866.336 1.179
323083.237 3075866.219 1.171
323083.067 3075866.088 1.129
323082.924 3075865.987 1.153
323082.827 3075865.874 1.145
323082.725 3075865.710 1.108
323082.644 3075865.570 1.091
323082.525 3075865.435 1.107
323082.381 3075865.339 1.081
323082.237 3075865.239 1.057
323082.078 3075865.126 1.018
323081.943 3075864.994 1.042
323081.855 3075864.859 1.028
323081.777 3075864.719 0.976
323081.688 3075864.574 1.001
323081.542 3075864.432 1.002
323081.382 3075864.290 0.968
323081.238 3075864.162 0.956
323081.101 3075864.017 0.974
323081.004 3075863.863 0.959
323080.926 3075863.725 0.910
323080.846 3075863.584 0.929
323080.705 3075863.458 0.925
323080.514 3075863.316 0.897
323080.346 3075863.198 0.878
323080.194 3075863.090 0.904
323080.106 3075862.956 0.899
323080.019 3075862.813 0.851
323079.947 3075862.670 0.873
323079.811 3075862.548 0.887
323079.645 3075862.423 0.864
323079.493 3075862.310 0.842
323079.357 3075862.178 0.864
323079.259 3075862.027 0.851
323079.192 3075861.870 0.815
323079.117 3075861.724 0.854
323078.946 3075861.564 0.871
323078.789 3075861.401 0.817
323078.640 3075861.272 0.825
323078.524 3075861.138 0.830
323078.428 3075860.983 0.796
323078.395 3075860.870 0.800
323078.295 3075860.736 0.830
323078.135 3075860.622 0.824
323077.951 3075860.499 0.769
323077.787 3075860.382 0.796
323077.673 3075860.233 0.786
323077.598 3075860.082 0.770
323077.586 3075859.961 0.765
323077.544 3075859.845 0.784
323077.444 3075859.738 0.777
323077.315 3075859.643 0.767
323077.181 3075859.555 0.744
323077.046 3075859.459 0.764
323076.946 3075859.339 0.761
323076.869 3075859.200 0.721
323076.822 3075859.072 0.758
323076.690 3075858.948 0.764
323076.504 3075858.819 0.743
323076.330 3075858.725 0.739
323076.178 3075858.609 0.749
323076.067 3075858.483 0.737
323076.009 3075858.350 0.710
323075.942 3075858.226 0.728
323075.818 3075858.116 0.732
323075.631 3075857.968 0.685
323075.482 3075857.871 0.682
323075.361 3075857.724 0.694
323075.279 3075857.564 0.696
323075.217 3075857.424 0.650
323075.123 3075857.253 0.681
323074.935 3075857.103 0.673
323074.769 3075856.966 0.625
323074.591 3075856.848 0.659
323074.454 3075856.696 0.647
323074.355 3075856.531 0.617
323074.293 3075856.403 0.622
323074.158 3075856.262 0.639
323073.964 3075856.151 0.626
323073.772 3075856.073 0.595
323073.613 3075855.992 0.622
323073.487 3075855.871 0.613
323073.382 3075855.714 0.572
323073.311 3075855.578 0.583
323073.176 3075855.450 0.599
323073.002 3075855.345 0.574
323072.842 3075855.253 0.555
323072.705 3075855.151 0.568
323072.584 3075855.029 0.564
323072.475 3075854.877 0.527
323072.391 3075854.755 0.542
323072.272 3075854.635 0.555
323072.119 3075854.532 0.546
323071.945 3075854.412 0.499
323071.793 3075854.293 0.514
323071.658 3075854.161 0.518
323071.540 3075853.999 0.478
323071.486 3075853.864 0.487
323071.368 3075853.717 0.507
323071.210 3075853.556 0.478
323071.074 3075853.420 0.449
323070.957 3075853.255 0.479
323070.858 3075853.079 0.466
323070.787 3075852.921 0.422
323070.687 3075852.749 0.459
323070.524 3075852.597 0.464
323070.405 3075852.439 0.415
323070.266 3075852.299 0.450
323070.138 3075852.129 0.449
323070.034 3075851.960 0.398
323069.950 3075851.792 0.429
323069.797 3075851.633 0.444
323069.649 3075851.447 0.391
323069.512 3075851.319 0.423
323069.390 3075851.162 0.433
323069.261 3075850.978 0.399
323069.224 3075850.831 0.406
323069.106 3075850.664 0.419
323068.957 3075850.524 0.400
323068.811 3075850.346 0.342
323068.653 3075850.181 0.352
323068.512 3075849.981 0.339
323068.435 3075849.799 0.308
323068.334 3075849.614 0.342
323068.172 3075849.467 0.350
323068.005 3075849.310 0.313
323067.831 3075849.173 0.346
323067.664 3075849.011 0.340
323067.538 3075848.845 0.307
323067.484 3075848.707 0.323
323067.361 3075848.568 0.336
323067.184 3075848.427 0.298
323067.008 3075848.310 0.289
323066.834 3075848.147 0.315
323066.690 3075847.963 0.290
323066.652 3075847.818 0.315
323066.516 3075847.670 0.347
323066.320 3075847.534 0.337
323066.150 3075847.458 0.328
323065.995 3075847.314 0.351
323065.869 3075847.142 0.338
323065.840 3075847.008 0.331
323065.739 3075846.842 0.355
323065.577 3075846.671 0.343
323065.426 3075846.519 0.300
323065.278 3075846.377 0.328
323065.150 3075846.223 0.303
323065.094 3075846.065 0.274
323065.058 3075845.934 0.309
323064.928 3075845.803 0.312
323064.753 3075845.633 0.267
323064.557 3075845.485 0.248
323064.394 3075845.314 0.263
323064.252 3075845.132 0.235
323064.186 3075844.994 0.200
323064.070 3075844.829 0.233
323063.893 3075844.715 0.241
323063.711 3075844.578 0.182
323063.544 3075844.443 0.217
323063.424 3075844.273 0.222
323063.324 3075844.069 0.166
323063.273 3075843.914 0.175
323063.168 3075843.760 0.185
323063.017 3075843.617 0.165
323062.857 3075843.483 0.128
323062.702 3075843.330 0.145
323062.557 3075843.191 0.135
323062.480 3075843.073 0.114
323062.360 3075842.927 0.133
323062.205 3075842.811 0.140
323062.042 3075842.687 0.095
323061.893 3075842.577 0.112
323061.753 3075842.426 0.111
323061.636 3075842.250 0.088
323061.604 3075842.118 0.065
323061.500 3075841.944 0.091
323061.368 3075841.798 0.093
323061.240 3075841.648 0.044
323061.112 3075841.484 0.065
323060.999 3075841.314 0.049
323060.894 3075841.152 0.015
323060.832 3075841.019 0.027
323060.733 3075840.894 0.037
323060.582 3075840.791 0.021
323060.410 3075840.679 -0.017
323060.262 3075840.558 0.003
323060.139 3075840.421 -0.003
323060.031 3075840.254 -0.042
323059.976 3075840.122 -0.027
323059.852 3075839.979 -0.011
323059.695 3075839.812 -0.039
323059.559 3075839.716 -0.062
323059.424 3075839.545 -0.042
323059.347 3075839.367 -0.047
323059.258 3075839.211 -0.105
323059.157 3075839.031 -0.073
323058.983 3075838.853 -0.069
323058.826 3075838.719 -0.122
323058.653 3075838.554 -0.083
323058.489 3075838.370 -0.090
323058.449 3075838.231 -0.124
323058.333 3075838.062 -0.086
323058.155 3075837.927 -0.079
323057.966 3075837.782 -0.130
323057.793 3075837.656 -0.114
323057.643 3075837.497 -0.109
323057.536 3075837.327 -0.132
323057.525 3075837.196 -0.153
323057.459 3075837.055 -0.124
323057.350 3075836.933 -0.133
323057.198 3075836.782 -0.185
323057.060 3075836.646 -0.172
323056.939 3075836.489 -0.173
323056.807 3075836.285 -0.220
323056.714 3075836.125 -0.207
323056.562 3075835.954 -0.193
323056.352 3075835.810 -0.207
323056.174 3075835.728 -0.235
323056.014 3075835.589 -0.204
323055.867 3075835.391 -0.239
323055.832 3075835.244 -0.248
323055.725 3075835.076 -0.222
323055.579 3075834.929 -0.216
323055.400 3075834.795 -0.264
323055.263 3075834.662 -0.222
323055.164 3075834.485 -0.231
323055.095 3075834.304 -0.263
323055.072 3075834.152 -0.287
323055.013 3075834.026 -0.282
323054.861 3075833.940 -0.279
323054.752 3075833.905 -0.318
323054.654 3075833.903 -0.325
323054.584 3075833.855 -0.346
323054.556 3075833.821 -0.354
323054.538 3075833.807 -0.356
323054.524 3075833.797 -0.354
323054.509 3075833.794 -0.359
323054.497 3075833.800 -0.352
