322751.460 3076193.546 1.774
322751.430 3076193.496 1.775
322751.389 3076193.428 1.777
322751.348 3076193.383 1.778
322751.189 3076193.291 1.777
322750.994 3076193.223 1.759
322750.887 3076193.205 1.743
322750.736 3076193.119 1.718
322750.675 3076193.018 1.706
322750.704 3076192.935 1.703
322750.585 3076192.781 1.691
322750.436 3076192.601 1.684
322750.282 3076192.488 1.684
322750.122 3076192.333 1.691
322749.997 3076192.177 1.695
322750.012 3076192.094 1.695
322749.952 3076191.952 1.691
322749.851 3076191.829 1.685
322749.720 3076191.742 1.683
322749.572 3076191.592 1.690
322749.476 3076191.514 1.694
322749.442 3076191.415 1.696
322749.424 3076191.298 1.696
322749.381 3076191.231 1.697
322749.276 3076191.131 1.697
322749.132 3076191.030 1.700
322748.986 3076190.936 1.703
322748.858 3076190.859 1.701
322748.770 3076190.791 1.700
322748.753 3076190.715 1.699
322748.682 3076190.578 1.699
322748.591 3076190.429 1.704
322748.489 3076190.327 1.713
322748.360 3076190.204 1.727
322748.220 3076190.114 1.740
322748.083 3076189.992 1.742
322747.983 3076189.848 1.736
322747.957 3076189.754 1.733
322747.863 3076189.605 1.727
322747.749 3076189.502 1.722
322747.604 3076189.400 1.720
322747.483 3076189.278 1.725
322747.349 3076189.179 1.727
322747.244 3076189.036 1.724
322747.163 3076188.917 1.721
322747.066 3076188.767 1.716
322746.947 3076188.677 1.707
322746.794 3076188.561 1.700
322746.642 3076188.423 1.701
322746.524 3076188.332 1.698
322746.427 3076188.204 1.690
322746.319 3076188.062 1.682
322746.215 3076187.936 1.678
322746.064 3076187.825 1.674
322745.932 3076187.727 1.673
322745.732 3076187.539 1.669
322745.601 3076187.390 1.659
322745.574 3076187.328 1.656
322745.454 3076187.149 1.648
322745.354 3076187.041 1.639
322745.198 3076186.927 1.627
322745.087 3076186.841 1.623
322744.950 3076186.729 1.621
322744.863 3076186.601 1.618
322744.809 3076186.484 1.615
322744.672 3076186.314 1.609
322744.556 3076186.186 1.603
322744.402 3076186.073 1.598
322744.252 3076185.916 1.600
322744.121 3076185.791 1.595
322744.048 3076185.673 1.591
322743.950 3076185.545 1.589
322743.844 3076185.420 1.588
322743.699 3076185.326 1.586
322743.578 3076185.243 1.581
322743.428 3076185.136 1.574
322743.315 3076185.005 1.569
322743.275 3076184.894 1.569
322743.153 3076184.741 1.572
322743.043 3076184.615 1.576
322742.896 3076184.514 1.581
322742.774 3076184.391 1.586
322742.651 3076184.291 1.583
322742.554 3076184.165 1.573
322742.484 3076184.041 1.564
322742.370 3076183.895 1.559
322742.282 3076183.753 1.554
322742.136 3076183.652 1.544
322742.011 3076183.548 1.539
322741.844 3076183.410 1.542
322741.737 3076183.257 1.548
322741.616 3076183.129 1.549
322741.546 3076183.002 1.544
322741.392 3076182.895 1.532
322741.256 3076182.823 1.522
322741.082 3076182.711 1.505
322740.975 3076182.587 1.491
322740.957 3076182.473 1.484
322740.857 3076182.331 1.473
322740.754 3076182.196 1.459
322740.604 3076182.073 1.443
322740.473 3076181.943 1.433
322740.314 3076181.789 1.423
322740.235 3076181.628 1.415
322740.152 3076181.493 1.408
322740.056 3076181.332 1.396
322739.901 3076181.215 1.382
322739.747 3076181.088 1.370
322739.598 3076180.966 1.351
322739.512 3076180.822 1.330
322739.439 3076180.698 1.312
322739.362 3076180.569 1.298
322739.225 3076180.448 1.288
322739.103 3076180.318 1.287
322738.960 3076180.188 1.282
322738.838 3076180.050 1.268
322738.754 3076179.909 1.256
322738.593 3076179.754 1.231
322738.407 3076179.647 1.214
322738.255 3076179.527 1.209
322738.131 3076179.444 1.203
322738.033 3076179.304 1.188
322737.980 3076179.186 1.176
322737.838 3076179.038 1.158
322737.680 3076178.905 1.138
322737.511 3076178.795 1.122
322737.347 3076178.629 1.108
322737.230 3076178.483 1.095
322737.173 3076178.344 1.086
322737.034 3076178.178 1.073
322736.891 3076178.041 1.054
322736.759 3076177.909 1.035
322736.616 3076177.743 1.025
322736.503 3076177.583 1.014
322736.417 3076177.440 1.001
322736.299 3076177.285 0.989
322736.191 3076177.144 0.976
322736.029 3076177.019 0.964
322735.872 3076176.852 0.957
322735.751 3076176.692 0.947
322735.688 3076176.553 0.938
322735.581 3076176.384 0.927
322735.462 3076176.252 0.914
322735.316 3076176.127 0.902
322735.171 3076175.977 0.897
322735.046 3076175.843 0.888
322734.954 3076175.687 0.875
322734.840 3076175.534 0.869
322734.725 3076175.378 0.867
322734.582 3076175.227 0.864
322734.438 3076175.041 0.869
322734.272 3076174.879 0.858
322734.167 3076174.711 0.844
322734.045 3076174.527 0.837
322733.911 3076174.365 0.828
322733.755 3076174.241 0.818
322733.595 3076174.060 0.814
322733.464 3076173.915 0.803
322733.367 3076173.775 0.791
322733.234 3076173.595 0.784
322733.109 3076173.449 0.771
322732.945 3076173.325 0.755
322732.767 3076173.155 0.748
322732.633 3076172.993 0.738
322732.547 3076172.853 0.727
322732.431 3076172.663 0.720
322732.315 3076172.525 0.709
322732.177 3076172.409 0.698
322732.034 3076172.258 0.689
322731.926 3076172.126 0.681
322731.843 3076171.973 0.673
322731.753 3076171.806 0.668
322731.632 3076171.662 0.664
322731.491 3076171.532 0.659
322731.368 3076171.389 0.660
322731.209 3076171.239 0.653
322731.101 3076171.071 0.639
322731.019 3076170.937 0.632
322730.899 3076170.763 0.619
322730.736 3076170.617 0.600
322730.598 3076170.480 0.592
322730.421 3076170.330 0.579
322730.304 3076170.153 0.558
322730.214 3076170.023 0.548
322730.085 3076169.832 0.536
322729.935 3076169.683 0.525
322729.793 3076169.540 0.521
322729.615 3076169.382 0.510
322729.508 3076169.212 0.499
322729.385 3076169.061 0.500
322729.267 3076168.888 0.505
322729.098 3076168.733 0.506
322728.949 3076168.582 0.517
322728.758 3076168.439 0.520
322728.619 3076168.272 0.512
322728.513 3076168.132 0.513
322728.382 3076167.958 0.511
322728.200 3076167.839 0.509
322728.034 3076167.695 0.521
322727.863 3076167.585 0.520
322727.724 3076167.430 0.505
322727.618 3076167.312 0.501
322727.473 3076167.137 0.501
322727.306 3076166.991 0.500
322727.170 3076166.869 0.507
322726.996 3076166.729 0.511
322726.863 3076166.579 0.502
322726.773 3076166.461 0.496
322726.627 3076166.283 0.489
322726.474 3076166.142 0.480
322726.324 3076166.035 0.476
322726.134 3076165.867 0.475
322725.992 3076165.720 0.464
322725.919 3076165.584 0.455
322725.802 3076165.405 0.450
322725.685 3076165.264 0.444
322725.544 3076165.140 0.439
322725.411 3076164.993 0.441
322725.270 3076164.876 0.439
322725.143 3076164.727 0.428
322725.045 3076164.594 0.423
322724.899 3076164.439 0.414
322724.714 3076164.324 0.401
322724.545 3076164.220 0.397
322724.357 3076164.097 0.395
322724.248 3076163.950 0.387
322724.186 3076163.806 0.381
322724.053 3076163.648 0.372
322723.909 3076163.493 0.354
322723.767 3076163.361 0.343
322723.601 3076163.178 0.334
322723.470 3076163.019 0.322
322723.368 3076162.881 0.315
322723.219 3076162.695 0.306
322723.053 3076162.555 0.298
322722.891 3076162.434 0.294
322722.719 3076162.319 0.280
322722.611 3076162.176 0.261
322722.503 3076162.042 0.250
322722.375 3076161.891 0.239
322722.188 3076161.736 0.229
322722.030 3076161.579 0.229
322721.872 3076161.417 0.218
322721.793 3076161.251 0.204
322721.701 3076161.107 0.194
322721.587 3076160.960 0.180
322721.427 3076160.826 0.164
322721.300 3076160.675 0.157
322721.160 3076160.539 0.149
322721.053 3076160.392 0.141
322720.954 3076160.263 0.138
322720.819 3076160.146 0.136
322720.657 3076160.079 0.134
322720.509 3076159.998 0.132
322720.364 3076159.920 0.128
322720.264 3076159.815 0.120
322720.145 3076159.718 0.108
322720.013 3076159.598 0.093
322719.869 3076159.502 0.080
322719.726 3076159.402 0.070
322719.581 3076159.277 0.057
322719.490 3076159.117 0.044
322719.432 3076158.982 0.038
322719.328 3076158.799 0.030
322719.196 3076158.646 0.020
322719.080 3076158.516 0.015
322718.932 3076158.338 0.010
322718.819 3076158.172 0.001
322718.750 3076158.043 -0.004
322718.636 3076157.849 -0.011
322718.494 3076157.705 -0.020
322718.347 3076157.599 -0.023
322718.172 3076157.463 -0.029
322718.040 3076157.319 -0.040
322717.963 3076157.199 -0.047
322717.808 3076157.028 -0.053
322717.662 3076156.895 -0.061
322717.499 3076156.785 -0.070
322717.322 3076156.632 -0.075
322717.188 3076156.489 -0.084
322717.084 3076156.350 -0.093
322716.959 3076156.181 -0.099
322716.835 3076156.043 -0.107
322716.682 3076155.947 -0.111
322716.524 3076155.803 -0.109
322716.404 3076155.684 -0.115
322716.321 3076155.548 -0.125
322716.231 3076155.430 -0.134
322716.129 3076155.295 -0.142
322715.978 3076155.182 -0.147
322715.848 3076155.066 -0.148
322715.683 3076154.940 -0.150
322715.560 3076154.795 -0.160
322715.491 3076154.674 -0.166
322715.377 3076154.522 -0.175
322715.246 3076154.408 -0.186
322715.104 3076154.305 -0.194
322714.958 3076154.170 -0.194
322714.825 3076154.063 -0.198
322714.727 3076153.923 -0.206
322714.639 3076153.827 -0.213
322714.538 3076153.684 -0.221
322714.400 3076153.576 -0.227
322714.258 3076153.495 -0.228
322714.092 3076153.371 -0.223
322713.972 3076153.270 -0.227
322713.889 3076153.136 -0.234
322713.823 3076153.030 -0.240
322713.726 3076152.882 -0.247
322713.595 3076152.757 -0.255
322713.462 3076152.652 -0.261
322713.331 3076152.509 -0.268
322713.230 3076152.392 -0.278
322713.168 3076152.263 -0.286
322713.091 3076152.137 -0.294
322712.991 3076152.015 -0.300
322712.846 3076151.920 -0.304
322712.721 3076151.821 -0.308
322712.605 3076151.724 -0.312
322712.555 3076151.615 -0.314
322712.531 3076151.530 -0.316
322712.462 3076151.398 -0.319
322712.367 3076151.288 -0.324
322712.256 3076151.237 -0.327
322712.143 3076151.193 -0.332
322712.029 3076151.145 -0.340
322711.958 3076151.085 -0.347
322711.900 3076150.979 -0.356
322711.900 3076150.897 -0.361
322711.825 3076150.789 -0.372
322711.783 3076150.702 -0.380
322711.699 3076150.668 -0.387
322711.593 3076150.645 -0.392
322711.476 3076150.614 -0.397
322711.424 3076150.573 -0.399
322711.419 3076150.515 -0.400
322711.445 3076150.432 -0.401
322711.413 3076150.368 -0.401
322711.367 3076150.313 -0.402
322711.320 3076150.261 -0.403
322711.254 3076150.225 -0.404
322711.185 3076150.228 -0.405
322711.097 3076150.213 -0.408
322710.982 3076150.197 -0.414
322710.896 3076150.146 -0.421
322710.863 3076150.068 -0.426
322710.849 3076149.968 -0.430
322710.804 3076149.890 -0.433
322710.762 3076149.868 -0.433
322710.705 3076149.844 -0.434
322710.680 3076149.781 -0.433
322710.698 3076149.645 -0.433
322710.655 3076149.502 -0.435
322710.671 3076149.380 -0.436
322710.697 3076149.264 -0.437
322710.665 3076149.189 -0.439
322710.598 3076149.176 -0.440
322710.490 3076149.288 -0.440
322710.499 3076149.270 -0.440
322710.475 3076149.291 -0.440
322710.457 3076149.288 -0.440
322710.533 3076149.188 -0.441
322710.490 3076149.236 -0.441
322710.441 3076149.280 -0.441
