323147.387 3075838.106 1.652
323147.246 3075838.046 1.662
323147.078 3075838.030 1.658
323146.951 3075837.976 1.677
323146.846 3075837.883 1.655
323146.848 3075837.782 1.660
323146.829 3075837.720 1.680
323146.696 3075837.622 1.666
323146.526 3075837.522 1.650
323146.379 3075837.493 1.670
323146.271 3075837.382 1.677
323146.201 3075837.238 1.659
323146.213 3075837.123 1.630
323146.211 3075837.040 1.661
323146.090 3075836.907 1.648
323145.940 3075836.804 1.622
323145.829 3075836.738 1.645
323145.725 3075836.600 1.629
323145.659 3075836.442 1.622
323145.670 3075836.340 1.617
323145.595 3075836.219 1.637
323145.449 3075836.097 1.626
323145.309 3075835.987 1.582
323145.177 3075835.898 1.606
323145.070 3075835.773 1.589
323144.995 3075835.638 1.570
323144.947 3075835.529 1.602
323144.822 3075835.406 1.606
323144.653 3075835.275 1.587
323144.531 3075835.236 1.598
323144.398 3075835.132 1.629
323144.307 3075835.009 1.619
323144.241 3075834.881 1.593
323144.232 3075834.782 1.619
323144.129 3075834.677 1.630
323143.991 3075834.589 1.605
323143.867 3075834.521 1.566
323143.731 3075834.415 1.586
323143.603 3075834.278 1.564
323143.512 3075834.155 1.546
323143.423 3075834.041 1.576
323143.278 3075833.945 1.574
323143.113 3075833.820 1.531
323142.949 3075833.743 1.565
323142.817 3075833.625 1.558
323142.721 3075833.477 1.538
323142.694 3075833.373 1.559
323142.600 3075833.265 1.580
323142.470 3075833.186 1.576
323142.331 3075833.060 1.534
323142.190 3075832.974 1.550
323142.055 3075832.862 1.565
323141.940 3075832.743 1.542
323141.925 3075832.631 1.548
323141.843 3075832.516 1.569
323141.720 3075832.418 1.548
323141.563 3075832.292 1.521
323141.418 3075832.212 1.548
323141.308 3075832.084 1.538
323141.240 3075831.941 1.534
323141.230 3075831.836 1.519
323141.145 3075831.701 1.537
323141.005 3075831.592 1.532
323140.862 3075831.471 1.501
323140.729 3075831.386 1.508
323140.630 3075831.249 1.501
323140.543 3075831.093 1.479
323140.529 3075830.994 1.489
323140.429 3075830.877 1.502
323140.288 3075830.766 1.499
323140.135 3075830.669 1.472
323140.005 3075830.585 1.500
323139.909 3075830.464 1.488
323139.838 3075830.343 1.473
323139.832 3075830.238 1.476
323139.775 3075830.123 1.479
323139.681 3075830.040 1.492
323139.570 3075829.989 1.487
323139.459 3075829.918 1.470
323139.347 3075829.846 1.490
323139.245 3075829.752 1.492
323139.184 3075829.636 1.474
323139.153 3075829.516 1.467
323139.137 3075829.398 1.468
323139.040 3075829.319 1.476
323138.898 3075829.249 1.479
323138.745 3075829.166 1.454
323138.603 3075829.048 1.470
323138.501 3075828.903 1.452
323138.464 3075828.781 1.443
323138.390 3075828.661 1.473
323138.243 3075828.557 1.468
323138.090 3075828.413 1.425
323137.923 3075828.297 1.459
323137.805 3075828.166 1.447
323137.726 3075828.020 1.423
323137.733 3075827.884 1.427
323137.683 3075827.760 1.441
323137.578 3075827.662 1.448
323137.441 3075827.579 1.440
323137.293 3075827.511 1.429
323137.154 3075827.413 1.448
323137.059 3075827.282 1.422
323137.003 3075827.107 1.394
323137.017 3075827.000 1.430
323136.911 3075826.872 1.448
323136.779 3075826.766 1.439
323136.637 3075826.656 1.396
323136.503 3075826.558 1.403
323136.406 3075826.434 1.395
323136.329 3075826.294 1.373
323136.353 3075826.202 1.380
323136.267 3075826.070 1.399
323136.113 3075825.932 1.377
323135.973 3075825.886 1.368
323135.845 3075825.773 1.383
323135.765 3075825.597 1.373
323135.728 3075825.452 1.344
323135.616 3075825.318 1.353
323135.456 3075825.186 1.328
323135.317 3075825.120 1.320
323135.222 3075825.004 1.344
323135.176 3075824.862 1.326
323135.186 3075824.755 1.311
323135.128 3075824.640 1.330
323135.006 3075824.555 1.334
323134.846 3075824.499 1.308
323134.724 3075824.468 1.322
323134.640 3075824.369 1.307
323134.595 3075824.245 1.298
323134.519 3075824.110 1.271
323134.469 3075823.987 1.280
323134.365 3075823.879 1.291
323134.232 3075823.784 1.275
323134.094 3075823.693 1.246
323133.962 3075823.593 1.248
323133.860 3075823.473 1.242
323133.760 3075823.334 1.215
323133.718 3075823.213 1.197
323133.631 3075823.097 1.213
323133.503 3075823.011 1.213
323133.337 3075822.921 1.185
323133.174 3075822.844 1.168
323133.029 3075822.730 1.170
323132.939 3075822.603 1.159
323132.878 3075822.481 1.126
323132.839 3075822.377 1.141
323132.713 3075822.266 1.137
323132.554 3075822.153 1.129
323132.411 3075822.078 1.091
323132.298 3075821.986 1.116
323132.265 3075821.868 1.098
323132.189 3075821.719 1.064
323132.186 3075821.612 1.086
323132.056 3075821.468 1.085
323131.903 3075821.364 1.085
323131.775 3075821.267 1.063
323131.669 3075821.157 1.068
323131.606 3075821.021 1.052
323131.553 3075820.861 1.002
323131.509 3075820.728 1.014
323131.359 3075820.605 1.017
323131.169 3075820.514 1.010
323131.072 3075820.423 0.957
323130.927 3075820.310 0.979
323130.814 3075820.200 0.981
323130.750 3075820.089 0.964
323130.693 3075819.962 0.929
323130.648 3075819.850 0.953
323130.555 3075819.757 0.972
323130.438 3075819.697 0.976
323130.279 3075819.611 0.929
323130.131 3075819.558 0.945
323130.001 3075819.447 0.940
323129.895 3075819.283 0.909
323129.867 3075819.169 0.908
323129.765 3075819.037 0.941
323129.624 3075818.931 0.919
323129.482 3075818.821 0.860
323129.342 3075818.710 0.875
323129.228 3075818.575 0.869
323129.117 3075818.412 0.837
323129.067 3075818.279 0.849
323128.961 3075818.165 0.873
323128.809 3075818.087 0.867
323128.652 3075817.978 0.833
323128.492 3075817.886 0.851
323128.351 3075817.764 0.839
323128.242 3075817.617 0.812
323128.209 3075817.512 0.837
323128.111 3075817.407 0.861
323127.978 3075817.338 0.863
323127.827 3075817.250 0.828
323127.678 3075817.161 0.857
323127.563 3075817.048 0.852
323127.473 3075816.926 0.835
323127.446 3075816.813 0.833
323127.392 3075816.705 0.850
323127.281 3075816.614 0.848
323127.112 3075816.499 0.834
323126.972 3075816.422 0.809
323126.836 3075816.311 0.831
323126.743 3075816.174 0.815
323126.724 3075816.064 0.802
323126.662 3075815.951 0.831
323126.538 3075815.835 0.816
323126.403 3075815.693 0.795
323126.267 3075815.609 0.798
323126.155 3075815.503 0.807
323126.070 3075815.388 0.791
323126.003 3075815.269 0.789
323126.004 3075815.172 0.783
323125.948 3075815.061 0.797
323125.851 3075814.971 0.794
323125.721 3075814.889 0.787
323125.595 3075814.813 0.755
323125.465 3075814.738 0.777
323125.367 3075814.624 0.777
323125.303 3075814.487 0.763
323125.272 3075814.343 0.730
323125.197 3075814.210 0.757
323125.057 3075814.107 0.750
323124.906 3075813.968 0.700
323124.783 3075813.871 0.705
323124.676 3075813.747 0.713
323124.635 3075813.612 0.693
323124.596 3075813.465 0.649
323124.557 3075813.353 0.670
323124.424 3075813.241 0.681
323124.258 3075813.145 0.673
323124.121 3075813.033 0.619
323123.992 3075812.932 0.633
323123.924 3075812.812 0.608
323123.842 3075812.670 0.573
323123.785 3075812.552 0.600
323123.668 3075812.429 0.597
323123.523 3075812.302 0.587
323123.379 3075812.213 0.572
323123.246 3075812.090 0.593
323123.109 3075811.926 0.559
323123.081 3075811.800 0.589
323123.002 3075811.670 0.628
323122.883 3075811.571 0.641
323122.751 3075811.468 0.620
323122.618 3075811.385 0.654
323122.502 3075811.273 0.663
323122.405 3075811.144 0.638
323122.382 3075811.032 0.657
323122.308 3075810.915 0.675
323122.192 3075810.830 0.681
323122.063 3075810.731 0.648
323121.927 3075810.655 0.677
323121.827 3075810.540 0.675
323121.749 3075810.395 0.648
323121.748 3075810.286 0.683
323121.647 3075810.174 0.691
323121.494 3075810.074 0.687
323121.379 3075810.034 0.697
323121.272 3075809.932 0.712
323121.213 3075809.813 0.689
323121.214 3075809.711 0.673
323121.151 3075809.601 0.685
323121.042 3075809.507 0.682
323120.914 3075809.428 0.639
323120.792 3075809.351 0.643
323120.695 3075809.247 0.646
323120.625 3075809.134 0.617
323120.630 3075809.048 0.602
323120.553 3075808.942 0.614
323120.443 3075808.870 0.623
323120.330 3075808.809 0.576
323120.227 3075808.789 0.584
323120.150 3075808.714 0.586
323120.121 3075808.623 0.570
323120.096 3075808.539 0.530
323120.061 3075808.453 0.543
323119.934 3075808.369 0.537
323119.793 3075808.305 0.512
323119.687 3075808.283 0.501
323119.586 3075808.236 0.509
323119.521 3075808.153 0.486
323119.504 3075808.065 0.483
323119.489 3075807.997 0.464
323119.466 3075807.938 0.463
323119.368 3075807.892 0.459
323119.252 3075807.873 0.457
323119.146 3075807.869 0.447
323119.039 3075807.896 0.464
323118.944 3075807.856 0.469
323118.897 3075807.778 0.446
323118.874 3075807.680 0.430
323118.869 3075807.604 0.425
323118.822 3075807.520 0.432
323118.739 3075807.444 0.430
323118.625 3075807.367 0.402
323118.527 3075807.321 0.403
323118.439 3075807.243 0.415
323118.392 3075807.143 0.395
323118.347 3075807.015 0.372
323118.350 3075806.922 0.386
323118.259 3075806.814 0.390
323118.119 3075806.722 0.382
323118.006 3075806.655 0.361
323117.904 3075806.588 0.373
323117.831 3075806.496 0.366
323117.801 3075806.396 0.363
323117.793 3075806.304 0.354
323117.770 3075806.217 0.357
323117.716 3075806.149 0.361
323117.654 3075806.099 0.354
323117.545 3075806.031 0.347
323117.434 3075805.967 0.331
323117.342 3075805.884 0.335
323117.272 3075805.776 0.319
323117.223 3075805.645 0.303
323117.210 3075805.550 0.305
323117.123 3075805.431 0.313
323117.007 3075805.320 0.282
323116.919 3075805.264 0.277
323116.833 3075805.163 0.276
323116.786 3075805.042 0.261
323116.755 3075804.942 0.249
323116.680 3075804.829 0.262
323116.588 3075804.727 0.245
323116.506 3075804.660 0.231
323116.437 3075804.598 0.242
323116.390 3075804.514 0.241
323116.383 3075804.430 0.230
323116.389 3075804.335 0.232
323116.417 3075804.243 0.235
323116.386 3075804.154 0.232
323116.310 3075804.100 0.232
323116.196 3075804.045 0.207
323116.114 3075804.009 0.215
323116.028 3075803.920 0.206
323115.978 3075803.806 0.191
323115.937 3075803.712 0.186
323115.878 3075803.614 0.191
323115.767 3075803.532 0.192
323115.636 3075803.443 0.167
323115.515 3075803.389 0.163
323115.409 3075803.285 0.163
323115.338 3075803.144 0.148
323115.292 3075803.025 0.135
323115.220 3075802.908 0.139
323115.092 3075802.826 0.140
323114.943 3075802.748 0.113
323114.824 3075802.705 0.121
323114.732 3075802.593 0.114
323114.658 3075802.462 0.090
323114.635 3075802.360 0.089
323114.524 3075802.259 0.102
323114.375 3075802.188 0.091
323114.251 3075802.152 0.064
323114.147 3075802.096 0.082
323114.087 3075802.010 0.068
323114.057 3075801.915 0.052
323114.077 3075801.860 0.071
323113.975 3075801.777 0.069
323113.845 3075801.732 0.059
323113.769 3075801.729 0.067
323113.704 3075801.675 0.046
323113.716 3075801.613 0.033
323113.662 3075801.570 0.045
323113.556 3075801.539 0.040
323113.421 3075801.535 0.041
323113.306 3075801.543 0.036
323113.188 3075801.500 0.041
323113.092 3075801.425 0.023
323113.048 3075801.335 0.010
323113.018 3075801.273 0.018
323112.945 3075801.208 0.027
323112.852 3075801.143 0.024
323112.725 3075801.069 0.001
323112.603 3075801.003 0.014
323112.509 3075800.886 0.010
323112.439 3075800.749 -0.010
323112.418 3075800.646 -0.019
323112.347 3075800.528 0.004
323112.237 3075800.418 -0.014
323112.126 3075800.308 -0.030
323112.019 3075800.190 -0.023
323111.934 3075800.048 -0.031
323111.859 3075799.903 -0.052
323111.817 3075799.792 -0.052
323111.732 3075799.668 -0.046
323111.606 3075799.556 -0.054
323111.478 3075799.477 -0.079
323111.356 3075799.356 -0.066
323111.286 3075799.232 -0.080
323111.238 3075799.111 -0.093
323111.195 3075799.010 -0.075
323111.100 3075798.904 -0.070
323110.962 3075798.793 -0.093
323110.850 3075798.713 -0.108
323110.747 3075798.610 -0.093
323110.681 3075798.478 -0.115
323110.645 3075798.349 -0.122
323110.625 3075798.255 -0.102
323110.522 3075798.158 -0.091
323110.380 3075798.076 -0.096
323110.267 3075798.021 -0.108
323110.142 3075797.928 -0.109
323110.053 3075797.812 -0.133
323110.006 3075797.711 -0.138
323109.943 3075797.624 -0.120
323109.832 3075797.542 -0.118
323109.686 3075797.437 -0.132
323109.562 3075797.377 -0.125
323109.457 3075797.258 -0.125
323109.401 3075797.118 -0.147
323109.363 3075797.005 -0.152
323109.320 3075796.905 -0.141
323109.202 3075796.819 -0.144
323109.050 3075796.732 -0.159
323108.900 3075796.688 -0.147
323108.782 3075796.585 -0.158
323108.708 3075796.472 -0.174
323108.693 3075796.392 -0.156
323108.579 3075796.314 -0.151
323108.411 3075796.242 -0.156
323108.242 3075796.184 -0.168
323108.099 3075796.094 -0.163
323108.007 3075795.971 -0.182
323107.955 3075795.833 -0.192
323107.899 3075795.715 -0.175
323107.788 3075795.599 -0.172
323107.653 3075795.471 -0.194
323107.544 3075795.379 -0.179
323107.445 3075795.246 -0.181
323107.371 3075795.097 -0.198
323107.348 3075794.971 -0.205
323107.309 3075794.854 -0.195
323107.216 3075794.749 -0.195
323107.082 3075794.653 -0.204
323106.951 3075794.590 -0.210
323106.844 3075794.497 -0.207
323106.778 3075794.390 -0.215
323106.738 3075794.281 -0.228
323106.763 3075794.189 -0.234
323106.723 3075794.106 -0.229
323106.650 3075794.040 -0.227
323106.537 3075794.002 -0.231
323106.393 3075793.934 -0.243
323106.272 3075793.885 -0.246
323106.202 3075793.816 -0.241
323106.182 3075793.740 -0.243
323106.200 3075793.655 -0.249
323106.236 3075793.583 -0.247
323106.234 3075793.510 -0.250
323106.198 3075793.452 -0.248
323106.127 3075793.422 -0.252
323106.029 3075793.385 -0.263
323105.950 3075793.382 -0.250
323105.891 3075793.349 -0.249
