322997.103 3075906.483 0.332
322996.927 3075906.673 0.319
322996.779 3075906.806 0.306
322996.619 3075906.966 0.343
322996.421 3075907.114 0.318
322996.286 3075907.210 0.302
322996.105 3075907.363 0.327
322995.930 3075907.536 0.321
322995.787 3075907.667 0.299
322995.625 3075907.816 0.329
322995.420 3075907.946 0.316
322995.279 3075908.055 0.311
322995.102 3075908.193 0.342
322994.902 3075908.374 0.328
322994.754 3075908.493 0.311
322994.582 3075908.621 0.341
322994.370 3075908.742 0.332
322994.232 3075908.824 0.300
322994.024 3075908.948 0.327
322993.834 3075909.127 0.318
322993.680 3075909.250 0.288
322993.514 3075909.399 0.318
322993.300 3075909.535 0.298
322993.165 3075909.638 0.287
322992.974 3075909.786 0.319
322992.813 3075909.976 0.313
322992.675 3075910.120 0.288
322992.522 3075910.290 0.327
322992.342 3075910.447 0.326
322992.220 3075910.546 0.307
322992.066 3075910.688 0.343
322991.936 3075910.906 0.348
322991.835 3075911.073 0.317
322991.720 3075911.255 0.365
322991.565 3075911.392 0.358
322991.436 3075911.519 0.312
322991.289 3075911.656 0.352
322991.165 3075911.832 0.358
322991.045 3075911.991 0.334
322990.933 3075912.142 0.385
322990.818 3075912.249 0.391
322990.688 3075912.322 0.397
322990.584 3075912.366 0.386
322990.439 3075912.487 0.400
322990.293 3075912.658 0.378
322990.196 3075912.812 0.353
322990.074 3075912.969 0.380
322989.910 3075913.091 0.359
322989.804 3075913.171 0.343
322989.648 3075913.309 0.386
322989.521 3075913.484 0.389
322989.375 3075913.637 0.348
322989.244 3075913.796 0.394
322989.073 3075913.911 0.400
322988.919 3075914.018 0.362
322988.768 3075914.138 0.400
322988.610 3075914.288 0.401
322988.426 3075914.416 0.350
322988.270 3075914.541 0.399
322988.094 3075914.647 0.402
322987.936 3075914.750 0.369
322987.753 3075914.874 0.417
322987.596 3075915.054 0.424
322987.431 3075915.217 0.369
322987.293 3075915.371 0.409
322987.125 3075915.503 0.407
322986.972 3075915.604 0.372
322986.803 3075915.730 0.406
322986.644 3075915.889 0.406
322986.466 3075916.033 0.356
322986.301 3075916.187 0.398
322986.125 3075916.299 0.407
322985.945 3075916.422 0.373
322985.780 3075916.519 0.418
322985.619 3075916.690 0.421
322985.417 3075916.859 0.377
322985.272 3075917.010 0.397
322985.115 3075917.136 0.408
322984.953 3075917.274 0.382
322984.822 3075917.379 0.405
322984.648 3075917.536 0.424
322984.464 3075917.714 0.384
322984.326 3075917.861 0.391
322984.169 3075918.009 0.412
322983.987 3075918.149 0.388
322983.845 3075918.247 0.392
322983.661 3075918.403 0.415
322983.485 3075918.588 0.386
322983.349 3075918.741 0.373
322983.192 3075918.898 0.395
322983.001 3075919.045 0.372
322982.867 3075919.148 0.380
322982.689 3075919.310 0.400
322982.527 3075919.520 0.385
322982.398 3075919.684 0.359
322982.252 3075919.843 0.385
322982.068 3075919.977 0.369
322981.923 3075920.113 0.368
322981.752 3075920.280 0.393
322981.553 3075920.481 0.358
322981.413 3075920.639 0.365
322981.254 3075920.791 0.386
322981.060 3075920.945 0.369
322980.916 3075921.051 0.384
322980.738 3075921.229 0.407
322980.554 3075921.436 0.372
322980.422 3075921.589 0.363
322980.277 3075921.744 0.390
322980.085 3075921.900 0.373
322979.966 3075922.046 0.372
322979.809 3075922.211 0.392
322979.657 3075922.425 0.353
322979.528 3075922.573 0.361
322979.379 3075922.736 0.382
322979.179 3075922.888 0.356
322979.057 3075923.000 0.365
322978.887 3075923.160 0.401
322978.709 3075923.346 0.373
322978.559 3075923.486 0.363
322978.398 3075923.636 0.387
322978.201 3075923.771 0.367
322978.070 3075923.870 0.368
322977.889 3075924.030 0.399
322977.689 3075924.214 0.370
322977.536 3075924.352 0.363
322977.362 3075924.489 0.383
322977.159 3075924.616 0.369
322977.007 3075924.720 0.379
322976.810 3075924.872 0.410
322976.618 3075925.053 0.378
322976.466 3075925.176 0.378
322976.305 3075925.318 0.393
322976.098 3075925.466 0.363
322975.957 3075925.569 0.364
322975.780 3075925.717 0.388
322975.602 3075925.895 0.362
322975.458 3075926.050 0.343
322975.294 3075926.207 0.366
322975.099 3075926.340 0.355
322974.963 3075926.456 0.346
322974.781 3075926.621 0.374
322974.602 3075926.818 0.365
322974.466 3075926.955 0.358
322974.306 3075927.115 0.395
322974.115 3075927.251 0.379
322973.981 3075927.350 0.369
322973.798 3075927.516 0.395
322973.623 3075927.713 0.373
322973.487 3075927.850 0.359
322973.339 3075928.011 0.375
322973.137 3075928.165 0.360
322973.011 3075928.274 0.347
322972.831 3075928.430 0.373
322972.648 3075928.618 0.351
322972.517 3075928.760 0.334
322972.354 3075928.940 0.360
322972.164 3075929.101 0.346
322972.030 3075929.204 0.340
322971.839 3075929.375 0.366
322971.661 3075929.585 0.363
322971.527 3075929.732 0.344
322971.379 3075929.875 0.373
322971.192 3075929.996 0.368
322971.064 3075930.122 0.351
322970.888 3075930.281 0.401
322970.716 3075930.488 0.378
322970.562 3075930.640 0.344
322970.399 3075930.788 0.383
322970.204 3075930.912 0.370
322970.077 3075931.003 0.358
322969.895 3075931.151 0.394
322969.711 3075931.315 0.374
322969.569 3075931.442 0.341
322969.396 3075931.589 0.377
322969.178 3075931.716 0.362
322969.030 3075931.802 0.333
322968.834 3075931.932 0.366
322968.665 3075932.112 0.361
322968.501 3075932.242 0.322
322968.330 3075932.386 0.360
322968.140 3075932.509 0.355
322967.994 3075932.618 0.322
322967.809 3075932.763 0.362
322967.651 3075932.952 0.347
322967.503 3075933.098 0.310
322967.350 3075933.250 0.347
322967.179 3075933.369 0.352
322967.032 3075933.481 0.315
322966.853 3075933.633 0.351
322966.722 3075933.818 0.355
322966.562 3075933.984 0.308
322966.418 3075934.143 0.343
322966.260 3075934.269 0.342
322966.102 3075934.398 0.306
322965.946 3075934.508 0.350
322965.791 3075934.670 0.360
322965.623 3075934.827 0.316
322965.488 3075934.969 0.342
322965.333 3075935.085 0.352
322965.143 3075935.178 0.317
322964.994 3075935.271 0.334
322964.820 3075935.404 0.351
322964.624 3075935.543 0.300
322964.444 3075935.677 0.325
322964.256 3075935.788 0.328
322964.051 3075935.896 0.301
322963.883 3075935.972 0.310
322963.693 3075936.107 0.329
322963.499 3075936.253 0.299
322963.332 3075936.370 0.293
322963.154 3075936.502 0.320
322962.940 3075936.621 0.307
322962.821 3075936.708 0.290
322962.645 3075936.858 0.329
322962.507 3075937.066 0.312
322962.370 3075937.232 0.281
322962.223 3075937.390 0.310
322962.043 3075937.511 0.302
322961.922 3075937.613 0.276
322961.764 3075937.755 0.318
322961.618 3075937.924 0.315
322961.452 3075938.068 0.271
322961.299 3075938.218 0.307
322961.143 3075938.350 0.303
322960.984 3075938.494 0.275
322960.843 3075938.586 0.316
322960.701 3075938.747 0.330
322960.526 3075938.933 0.283
322960.380 3075939.082 0.292
322960.229 3075939.213 0.305
322960.049 3075939.339 0.275
322959.910 3075939.470 0.294
322959.737 3075939.629 0.314
322959.567 3075939.799 0.268
322959.418 3075939.938 0.284
322959.264 3075940.084 0.307
322959.093 3075940.233 0.282
322958.960 3075940.328 0.290
322958.798 3075940.474 0.316
322958.629 3075940.667 0.290
322958.498 3075940.820 0.273
322958.354 3075940.983 0.305
322958.174 3075941.135 0.294
322958.061 3075941.255 0.285
322957.885 3075941.407 0.314
322957.719 3075941.600 0.288
322957.579 3075941.742 0.264
322957.431 3075941.907 0.311
322957.252 3075942.054 0.306
322957.129 3075942.182 0.277
322956.956 3075942.348 0.320
322956.807 3075942.547 0.314
322956.665 3075942.696 0.269
322956.514 3075942.862 0.308
322956.323 3075942.996 0.319
322956.190 3075943.091 0.275
322956.004 3075943.249 0.322
322955.839 3075943.438 0.317
322955.686 3075943.586 0.266
322955.517 3075943.745 0.305
322955.332 3075943.850 0.299
322955.182 3075943.963 0.243
322954.998 3075944.099 0.288
322954.835 3075944.266 0.294
322954.655 3075944.408 0.239
322954.486 3075944.552 0.277
322954.316 3075944.653 0.291
322954.134 3075944.764 0.246
322953.952 3075944.883 0.280
322953.758 3075945.062 0.290
322953.567 3075945.215 0.245
322953.406 3075945.359 0.278
322953.220 3075945.479 0.275
322953.056 3075945.619 0.241
322952.884 3075945.755 0.277
322952.741 3075945.956 0.295
322952.577 3075946.148 0.235
322952.447 3075946.339 0.280
322952.291 3075946.501 0.285
322952.166 3075946.661 0.258
322952.031 3075946.817 0.304
322951.910 3075947.010 0.305
322951.779 3075947.210 0.246
322951.666 3075947.391 0.293
322951.531 3075947.536 0.299
322951.382 3075947.688 0.270
322951.238 3075947.821 0.302
322951.104 3075948.017 0.314
322950.942 3075948.184 0.267
322950.827 3075948.333 0.299
322950.684 3075948.467 0.311
322950.499 3075948.623 0.276
322950.355 3075948.738 0.299
322950.201 3075948.883 0.318
322950.019 3075949.063 0.277
322949.886 3075949.199 0.287
322949.734 3075949.336 0.310
322949.538 3075949.476 0.297
322949.408 3075949.545 0.285
322949.227 3075949.687 0.315
322949.054 3075949.894 0.291
322948.921 3075950.046 0.274
322948.773 3075950.207 0.306
322948.586 3075950.354 0.292
322948.465 3075950.445 0.277
322948.307 3075950.602 0.320
322948.169 3075950.803 0.309
322948.038 3075950.951 0.273
322947.907 3075951.116 0.308
322947.743 3075951.260 0.290
322947.623 3075951.370 0.275
322947.474 3075951.525 0.315
322947.349 3075951.696 0.314
322947.199 3075951.819 0.268
322947.061 3075951.963 0.319
322946.890 3075952.072 0.322
322946.702 3075952.199 0.276
322946.553 3075952.279 0.314
322946.389 3075952.421 0.325
322946.200 3075952.566 0.283
322946.065 3075952.698 0.307
322945.901 3075952.820 0.318
322945.712 3075952.954 0.295
322945.565 3075953.032 0.300
322945.392 3075953.176 0.320
322945.208 3075953.370 0.283
322945.080 3075953.515 0.277
322944.929 3075953.668 0.301
322944.740 3075953.803 0.279
322944.609 3075953.884 0.278
322944.437 3075954.035 0.313
322944.266 3075954.228 0.296
322944.136 3075954.363 0.282
322943.984 3075954.521 0.311
322943.789 3075954.646 0.309
322943.651 3075954.757 0.282
322943.477 3075954.904 0.318
322943.332 3075955.138 0.305
322943.212 3075955.284 0.274
322943.087 3075955.466 0.312
322942.905 3075955.625 0.307
322942.788 3075955.744 0.296
322942.627 3075955.904 0.325
322942.479 3075956.125 0.316
322942.361 3075956.269 0.278
322942.225 3075956.449 0.309
322942.044 3075956.591 0.310
322941.929 3075956.692 0.304
322941.754 3075956.854 0.334
322941.586 3075957.082 0.320
322941.452 3075957.229 0.298
322941.306 3075957.400 0.330
322941.108 3075957.565 0.324
322940.993 3075957.674 0.322
322940.837 3075957.840 0.357
322940.697 3075958.061 0.352
322940.582 3075958.208 0.319
322940.450 3075958.371 0.348
322940.264 3075958.494 0.340
322940.130 3075958.583 0.307
322939.957 3075958.713 0.352
322939.798 3075958.909 0.349
322939.651 3075959.033 0.327
322939.503 3075959.182 0.365
322939.321 3075959.318 0.358
322939.179 3075959.459 0.324
322939.012 3075959.607 0.367
322938.883 3075959.801 0.365
322938.744 3075959.966 0.315
322938.614 3075960.142 0.349
322938.471 3075960.290 0.350
322938.350 3075960.429 0.328
322938.201 3075960.574 0.369
322938.075 3075960.757 0.378
322937.923 3075960.922 0.338
322937.793 3075961.093 0.372
322937.641 3075961.238 0.378
322937.478 3075961.378 0.344
322937.335 3075961.519 0.386
322937.193 3075961.695 0.398
322937.030 3075961.880 0.343
322936.902 3075962.036 0.366
322936.755 3075962.174 0.374
322936.597 3075962.316 0.351
322936.450 3075962.444 0.385
322936.305 3075962.622 0.404
322936.150 3075962.821 0.361
322936.019 3075963.004 0.388
322935.879 3075963.166 0.399
322935.728 3075963.308 0.371
322935.595 3075963.431 0.406
322935.460 3075963.617 0.418
322935.324 3075963.827 0.383
322935.223 3075963.986 0.393
322935.096 3075964.154 0.415
322934.923 3075964.326 0.392
322934.806 3075964.464 0.405
322934.668 3075964.650 0.430
322934.522 3075964.869 0.393
322934.414 3075965.037 0.390
322934.286 3075965.209 0.413
322934.103 3075965.364 0.396
322933.987 3075965.508 0.409
322933.844 3075965.677 0.437
322933.698 3075965.884 0.406
322933.580 3075966.040 0.415
322933.437 3075966.204 0.433
322933.263 3075966.368 0.408
322933.125 3075966.473 0.421
322932.976 3075966.643 0.445
322932.829 3075966.837 0.424
322932.719 3075966.994 0.413
322932.572 3075967.158 0.441
322932.380 3075967.295 0.425
322932.263 3075967.398 0.414
322932.099 3075967.570 0.449
322931.936 3075967.785 0.439
322931.807 3075967.927 0.416
322931.659 3075968.088 0.436
322931.459 3075968.244 0.425
322931.324 3075968.381 0.420
322931.143 3075968.553 0.444
322930.955 3075968.754 0.426
322930.841 3075968.885 0.425
322930.695 3075969.036 0.452
322930.495 3075969.169 0.450
322930.358 3075969.268 0.433
322930.172 3075969.414 0.460
322929.969 3075969.610 0.429
322929.842 3075969.740 0.433
322929.672 3075969.895 0.455
322929.447 3075970.063 0.442
322929.328 3075970.167 0.436
322929.151 3075970.310 0.478
322928.974 3075970.491 0.470
322928.832 3075970.617 0.447
322928.650 3075970.767 0.471
322928.441 3075970.875 0.467
322928.305 3075970.967 0.441
322928.108 3075971.107 0.482
322927.931 3075971.291 0.477
322927.768 3075971.423 0.447
322927.601 3075971.573 0.477
322927.404 3075971.700 0.465
322927.280 3075971.792 0.449
322927.093 3075971.934 0.481
322926.930 3075972.129 0.482
322926.771 3075972.278 0.445
322926.606 3075972.439 0.476
322926.409 3075972.558 0.478
322926.259 3075972.668 0.448
322926.068 3075972.826 0.491
322925.915 3075973.021 0.496
322925.752 3075973.157 0.450
322925.593 3075973.324 0.497
322925.416 3075973.456 0.489
322925.259 3075973.584 0.451
322925.072 3075973.719 0.488
322924.916 3075973.891 0.491
322924.757 3075974.025 0.450
322924.581 3075974.175 0.478
322924.404 3075974.281 0.487
322924.225 3075974.392 0.445
322924.060 3075974.502 0.479
322923.891 3075974.642 0.500
322923.695 3075974.767 0.453
322923.528 3075974.914 0.471
322923.351 3075975.032 0.477
322923.152 3075975.173 0.441
322922.982 3075975.260 0.462
322922.809 3075975.420 0.484
322922.621 3075975.573 0.439
322922.460 3075975.708 0.459
322922.270 3075975.829 0.467
322922.061 3075975.956 0.437
322921.891 3075976.061 0.462
322921.694 3075976.213 0.483
322921.480 3075976.363 0.432
322921.301 3075976.504 0.454
322921.118 3075976.617 0.476
322920.922 3075976.729 0.428
322920.739 3075976.820 0.454
322920.533 3075976.980 0.459
322920.314 3075977.125 0.415
322920.138 3075977.256 0.431
322919.955 3075977.366 0.439
322919.760 3075977.483 0.410
322919.600 3075977.576 0.422
322919.411 3075977.719 0.433
322919.195 3075977.869 0.385
322919.041 3075978.002 0.395
322918.857 3075978.111 0.408
322918.654 3075978.228 0.387
322918.502 3075978.325 0.391
322918.307 3075978.466 0.420
322918.104 3075978.627 0.379
322917.951 3075978.762 0.382
322917.769 3075978.901 0.406
322917.562 3075979.047 0.387
322917.424 3075979.145 0.381
322917.238 3075979.303 0.404
322917.052 3075979.503 0.370
322916.924 3075979.646 0.371
322916.768 3075979.803 0.400
322916.586 3075979.938 0.398
322916.451 3075980.043 0.380
322916.272 3075980.216 0.406
322916.109 3075980.410 0.386
322915.986 3075980.548 0.363
322915.836 3075980.701 0.392
322915.645 3075980.869 0.383
322915.513 3075980.959 0.365
322915.344 3075981.104 0.399
322915.181 3075981.272 0.387
322915.048 3075981.416 0.360
322914.884 3075981.581 0.392
322914.698 3075981.683 0.397
322914.547 3075981.765 0.359
322914.356 3075981.903 0.394
322914.181 3075982.129 0.396
322914.015 3075982.293 0.346
322913.858 3075982.475 0.371
322913.667 3075982.639 0.356
322913.540 3075982.730 0.346
322913.372 3075982.903 0.388
322913.229 3075983.087 0.389
322913.084 3075983.243 0.352
322912.936 3075983.398 0.389
322912.758 3075983.534 0.379
322912.619 3075983.658 0.344
322912.454 3075983.832 0.389
322912.309 3075984.023 0.384
322912.151 3075984.179 0.340
322912.000 3075984.357 0.376
322911.813 3075984.523 0.370
322911.673 3075984.654 0.338
322911.495 3075984.817 0.373
322911.356 3075985.015 0.377
322911.213 3075985.166 0.337
322911.076 3075985.326 0.372
322910.913 3075985.469 0.374
322910.749 3075985.605 0.333
322910.581 3075985.748 0.369
322910.430 3075985.944 0.380
322910.270 3075986.104 0.329
322910.128 3075986.282 0.370
322909.943 3075986.426 0.366
322909.797 3075986.560 0.330
322909.598 3075986.723 0.358
322909.431 3075986.919 0.363
322909.273 3075987.071 0.327
322909.125 3075987.243 0.360
322908.953 3075987.369 0.363
322908.789 3075987.486 0.324
322908.620 3075987.610 0.358
322908.467 3075987.794 0.362
322908.303 3075987.938 0.315
322908.130 3075988.119 0.345
322907.943 3075988.276 0.339
322907.813 3075988.408 0.315
322907.647 3075988.561 0.355
322907.515 3075988.774 0.359
322907.373 3075988.956 0.315
322907.226 3075989.143 0.335
322907.048 3075989.302 0.330
322906.920 3075989.424 0.302
322906.761 3075989.597 0.337
322906.609 3075989.794 0.337
322906.457 3075989.934 0.292
322906.289 3075990.101 0.332
322906.096 3075990.235 0.329
322905.954 3075990.362 0.293
322905.770 3075990.509 0.332
322905.612 3075990.736 0.334
322905.461 3075990.911 0.295
322905.305 3075991.089 0.319
322905.117 3075991.250 0.306
322904.990 3075991.346 0.286
322904.823 3075991.513 0.319
322904.673 3075991.723 0.321
322904.522 3075991.874 0.270
322904.368 3075992.048 0.308
322904.174 3075992.210 0.302
322904.049 3075992.326 0.291
322903.881 3075992.484 0.323
322903.719 3075992.686 0.318
322903.573 3075992.838 0.292
322903.413 3075993.016 0.319
322903.215 3075993.174 0.306
322903.088 3075993.280 0.291
322902.915 3075993.442 0.320
322902.754 3075993.648 0.307
322902.624 3075993.794 0.276
322902.457 3075993.964 0.300
322902.251 3075994.102 0.300
322902.116 3075994.199 0.281
322901.934 3075994.344 0.309
322901.762 3075994.536 0.300
322901.615 3075994.687 0.280
322901.446 3075994.851 0.303
322901.242 3075995.010 0.294
322901.110 3075995.093 0.281
322900.923 3075995.253 0.313
322900.751 3075995.467 0.293
322900.603 3075995.626 0.273
322900.439 3075995.803 0.300
322900.252 3075995.967 0.285
322900.113 3075996.093 0.290
322899.955 3075996.276 0.317
322899.784 3075996.480 0.289
322899.633 3075996.634 0.284
322899.472 3075996.803 0.297
322899.274 3075996.955 0.272
322899.130 3075997.068 0.286
322898.969 3075997.229 0.308
322898.780 3075997.416 0.275
322898.635 3075997.589 0.292
322898.462 3075997.732 0.310
322898.272 3075997.888 0.286
322898.113 3075997.997 0.304
322897.947 3075998.166 0.320
322897.746 3075998.347 0.274
322897.598 3075998.495 0.282
322897.437 3075998.632 0.293
322897.253 3075998.789 0.263
322897.088 3075998.915 0.285
322896.927 3075999.095 0.309
322896.749 3075999.283 0.271
322896.597 3075999.450 0.282
322896.442 3075999.600 0.301
322896.277 3075999.748 0.270
322896.134 3075999.879 0.295
322895.980 3076000.058 0.305
322895.799 3076000.239 0.256
322895.653 3076000.392 0.280
322895.497 3076000.529 0.294
322895.322 3076000.701 0.275
322895.165 3076000.820 0.296
322895.027 3076001.016 0.317
322894.880 3076001.225 0.266
322894.754 3076001.422 0.293
322894.614 3076001.577 0.300
322894.466 3076001.739 0.269
322894.318 3076001.893 0.301
322894.178 3076002.110 0.303
322894.019 3076002.302 0.258
322893.870 3076002.496 0.285
322893.702 3076002.654 0.287
322893.568 3076002.774 0.266
322893.411 3076002.921 0.302
322893.250 3076003.115 0.305
322893.081 3076003.253 0.257
322892.909 3076003.414 0.294
322892.736 3076003.537 0.299
322892.588 3076003.655 0.262
322892.406 3076003.789 0.303
322892.236 3076003.969 0.299
322892.059 3076004.120 0.258
322891.888 3076004.286 0.289
322891.699 3076004.435 0.282
322891.555 3076004.549 0.251
322891.402 3076004.683 0.288
322891.251 3076004.877 0.290
322891.091 3076005.036 0.255
322890.921 3076005.207 0.282
322890.740 3076005.340 0.291
322890.591 3076005.461 0.264
322890.407 3076005.615 0.296
322890.237 3076005.831 0.289
322890.086 3076005.982 0.252
322889.915 3076006.163 0.286
322889.708 3076006.323 0.282
322889.563 3076006.469 0.262
322889.383 3076006.650 0.296
322889.202 3076006.871 0.286
322889.054 3076007.007 0.267
322888.891 3076007.173 0.303
322888.688 3076007.310 0.291
322888.539 3076007.412 0.270
322888.351 3076007.561 0.298
322888.161 3076007.748 0.282
322888.014 3076007.873 0.262
322887.850 3076008.008 0.300
322887.635 3076008.169 0.278
322887.494 3076008.278 0.261
322887.311 3076008.441 0.291
322887.109 3076008.638 0.272
322886.970 3076008.777 0.260
322886.812 3076008.928 0.284
322886.605 3076009.085 0.264
322886.463 3076009.172 0.259
322886.285 3076009.323 0.281
322886.099 3076009.525 0.263
322885.964 3076009.669 0.253
322885.787 3076009.818 0.279
322885.578 3076009.941 0.260
322885.427 3076010.047 0.247
322885.240 3076010.206 0.272
322885.050 3076010.385 0.251
322884.899 3076010.537 0.239
322884.731 3076010.699 0.263
322884.529 3076010.841 0.244
322884.386 3076010.947 0.243
322884.210 3076011.102 0.272
322884.014 3076011.288 0.247
322883.857 3076011.428 0.239
322883.697 3076011.569 0.263
322883.495 3076011.717 0.238
322883.342 3076011.825 0.240
322883.160 3076011.969 0.258
322882.961 3076012.146 0.221
322882.815 3076012.284 0.229
322882.650 3076012.437 0.252
322882.442 3076012.586 0.231
322882.293 3076012.679 0.238
322882.113 3076012.831 0.265
322881.930 3076013.027 0.236
322881.795 3076013.172 0.235
322881.620 3076013.331 0.258
322881.428 3076013.497 0.240
322881.293 3076013.597 0.247
322881.111 3076013.760 0.275
322880.933 3076013.968 0.234
322880.801 3076014.124 0.236
322880.640 3076014.274 0.253
322880.445 3076014.420 0.226
322880.312 3076014.531 0.230
322880.134 3076014.681 0.254
322879.961 3076014.848 0.231
322879.824 3076014.972 0.218
322879.663 3076015.126 0.249
322879.459 3076015.269 0.243
322879.333 3076015.373 0.221
322879.168 3076015.532 0.256
322879.019 3076015.733 0.243
322878.897 3076015.880 0.218
322878.756 3076016.052 0.246
322878.574 3076016.212 0.236
322878.451 3076016.325 0.219
322878.279 3076016.490 0.256
322878.151 3076016.699 0.245
322878.026 3076016.841 0.215
322877.879 3076017.005 0.245
322877.702 3076017.140 0.249
322877.572 3076017.240 0.221
322877.399 3076017.397 0.264
322877.232 3076017.603 0.258
322877.085 3076017.748 0.222
322876.924 3076017.918 0.256
322876.730 3076018.077 0.245
322876.589 3076018.194 0.229
322876.411 3076018.359 0.260
322876.265 3076018.561 0.252
322876.133 3076018.703 0.233
322875.983 3076018.865 0.268
322875.800 3076019.027 0.263
322875.669 3076019.152 0.248
322875.504 3076019.332 0.281
322875.354 3076019.544 0.267
322875.225 3076019.692 0.252
322875.081 3076019.852 0.288
322874.891 3076020.001 0.275
322874.755 3076020.110 0.251
322874.594 3076020.275 0.285
322874.447 3076020.485 0.274
322874.311 3076020.626 0.243
322874.177 3076020.801 0.282
322874.000 3076020.991 0.274
322873.875 3076021.081 0.261
322873.712 3076021.264 0.290
322873.585 3076021.492 0.288
322873.475 3076021.652 0.263
322873.341 3076021.845 0.300
322873.174 3076022.019 0.293
322873.057 3076022.131 0.274
322872.908 3076022.296 0.308
322872.778 3076022.493 0.302
322872.644 3076022.636 0.257
322872.505 3076022.802 0.292
322872.334 3076022.930 0.289
322872.193 3076023.049 0.273
322872.025 3076023.195 0.307
322871.874 3076023.395 0.312
322871.731 3076023.531 0.275
322871.583 3076023.697 0.300
322871.412 3076023.844 0.301
322871.271 3076023.966 0.274
322871.103 3076024.125 0.307
322870.962 3076024.329 0.312
322870.826 3076024.484 0.273
322870.673 3076024.674 0.307
322870.486 3076024.827 0.303
322870.344 3076024.935 0.286
322870.170 3076025.096 0.321
322870.026 3076025.309 0.323
322869.884 3076025.463 0.291
322869.733 3076025.638 0.321
322869.561 3076025.794 0.318
322869.415 3076025.911 0.299
322869.243 3076026.070 0.339
322869.089 3076026.272 0.331
322868.947 3076026.420 0.302
322868.796 3076026.592 0.335
322868.621 3076026.737 0.329
322868.487 3076026.854 0.304
322868.321 3076027.020 0.342
322868.177 3076027.234 0.338
322868.043 3076027.395 0.301
322867.887 3076027.578 0.333
322867.699 3076027.739 0.325
322867.561 3076027.854 0.313
322867.394 3076028.013 0.347
322867.238 3076028.213 0.351
322867.103 3076028.364 0.323
322866.953 3076028.538 0.358
322866.765 3076028.687 0.354
322866.626 3076028.806 0.341
322866.443 3076028.973 0.369
322866.253 3076029.191 0.342
322866.118 3076029.346 0.337
322865.965 3076029.500 0.364
322865.782 3076029.658 0.355
322865.644 3076029.752 0.348
322865.451 3076029.919 0.368
322865.263 3076030.129 0.352
322865.131 3076030.288 0.349
322864.969 3076030.464 0.367
322864.799 3076030.651 0.346
322864.669 3076030.786 0.360
322864.503 3076030.973 0.381
322864.351 3076031.166 0.359
322864.238 3076031.322 0.365
322864.079 3076031.494 0.386
322863.900 3076031.670 0.358
322863.770 3076031.799 0.364
322863.619 3076031.983 0.380
322863.453 3076032.187 0.346
322863.337 3076032.349 0.360
322863.180 3076032.492 0.371
322862.999 3076032.657 0.350
322862.839 3076032.783 0.364
322862.672 3076032.956 0.376
322862.486 3076033.131 0.340
322862.350 3076033.285 0.350
322862.181 3076033.419 0.370
322861.990 3076033.534 0.331
322861.833 3076033.644 0.350
322861.633 3076033.812 0.360
322861.439 3076033.990 0.327
322861.276 3076034.157 0.335
322861.127 3076034.299 0.350
322860.956 3076034.448 0.326
322860.795 3076034.543 0.339
322860.647 3076034.714 0.358
322860.520 3076034.902 0.330
322860.412 3076035.063 0.350
322860.262 3076035.232 0.359
322860.096 3076035.395 0.336
322859.942 3076035.499 0.330
322859.773 3076035.677 0.343
322859.598 3076035.877 0.286
322859.471 3076036.087 0.327
322859.285 3076036.234 0.328
322859.119 3076036.370 0.294
322858.926 3076036.517 0.338
322858.761 3076036.717 0.356
322858.606 3076036.866 0.321
322858.453 3076037.054 0.346
322858.241 3076037.227 0.338
322858.109 3076037.328 0.333
322857.924 3076037.493 0.364
322857.755 3076037.701 0.357
322857.619 3076037.859 0.339
322857.465 3076038.025 0.360
322857.263 3076038.172 0.350
322857.133 3076038.271 0.343
322856.945 3076038.430 0.365
322856.770 3076038.622 0.348
322856.647 3076038.763 0.330
322856.490 3076038.921 0.361
322856.298 3076039.056 0.346
322856.166 3076039.155 0.333
322855.981 3076039.300 0.367
322855.795 3076039.484 0.356
322855.659 3076039.635 0.338
322855.501 3076039.792 0.373
322855.318 3076039.938 0.361
322855.195 3076040.036 0.353
322855.007 3076040.178 0.393
322854.815 3076040.408 0.372
322854.683 3076040.572 0.359
322854.523 3076040.751 0.392
322854.341 3076040.918 0.396
322854.195 3076040.997 0.381
322854.032 3076041.152 0.407
322853.890 3076041.401 0.390
322853.811 3076041.598 0.374
322853.675 3076041.803 0.393
322853.521 3076041.982 0.376
322853.393 3076042.087 0.380
322853.246 3076042.244 0.401
322853.099 3076042.450 0.383
322853.003 3076042.625 0.384
322852.856 3076042.783 0.408
322852.674 3076042.923 0.396
322852.523 3076043.007 0.396
322852.350 3076043.155 0.420
322852.174 3076043.340 0.394
322852.049 3076043.477 0.384
322851.892 3076043.605 0.409
322851.700 3076043.732 0.397
322851.552 3076043.784 0.375
322851.378 3076043.922 0.397
322851.194 3076044.124 0.375
322851.083 3076044.267 0.366
322850.923 3076044.405 0.378
322850.743 3076044.529 0.370
322850.607 3076044.593 0.347
322850.432 3076044.713 0.368
322850.309 3076044.876 0.368
322850.180 3076045.026 0.333
322850.067 3076045.185 0.365
322849.923 3076045.303 0.360
322849.756 3076045.414 0.342
322849.616 3076045.474 0.357
322849.472 3076045.664 0.371
322849.346 3076045.884 0.349
322849.268 3076046.040 0.351
322849.158 3076046.188 0.369
322849.015 3076046.323 0.337
322848.919 3076046.356 0.352
322848.789 3076046.471 0.373
322848.698 3076046.627 0.372
322848.587 3076046.790 0.343
322848.474 3076046.949 0.373
322848.326 3076047.072 0.365
322848.182 3076047.147 0.348
322848.038 3076047.250 0.370
322847.899 3076047.402 0.383
322847.734 3076047.583 0.344
322847.639 3076047.738 0.353
322847.492 3076047.890 0.366
322847.340 3076048.013 0.344
322847.208 3076048.083 0.342
322847.056 3076048.206 0.371
322846.913 3076048.371 0.358
322846.793 3076048.541 0.333
322846.658 3076048.706 0.362
322846.467 3076048.863 0.346
322846.302 3076048.889 0.335
322846.111 3076049.040 0.350
322845.919 3076049.238 0.318
322845.784 3076049.416 0.341
322845.618 3076049.578 0.354
322845.423 3076049.729 0.319
322845.272 3076049.813 0.330
322845.126 3076049.957 0.349
322845.008 3076050.143 0.337
322844.937 3076050.311 0.327
322844.815 3076050.486 0.353
322844.676 3076050.636 0.348
322844.508 3076050.693 0.321
322844.363 3076050.798 0.346
322844.253 3076050.935 0.346
322844.112 3076051.091 0.323
322844.002 3076051.221 0.336
322843.861 3076051.344 0.349
322843.693 3076051.466 0.329
322843.575 3076051.512 0.329
322843.428 3076051.639 0.359
322843.271 3076051.824 0.341
322843.139 3076051.976 0.314
322843.008 3076052.123 0.341
322842.879 3076052.262 0.338
322842.744 3076052.347 0.323
322842.610 3076052.468 0.343
322842.476 3076052.613 0.340
322842.319 3076052.759 0.309
322842.188 3076052.901 0.326
322842.043 3076053.031 0.335
322841.878 3076053.142 0.314
322841.736 3076053.221 0.332
322841.575 3076053.362 0.342
322841.414 3076053.528 0.312
322841.290 3076053.676 0.321
322841.120 3076053.806 0.336
322840.922 3076053.922 0.313
322840.765 3076053.986 0.315
322840.586 3076054.092 0.328
322840.398 3076054.219 0.300
322840.259 3076054.332 0.313
322840.075 3076054.436 0.330
322839.875 3076054.532 0.311
322839.724 3076054.563 0.306
322839.539 3076054.670 0.331
322839.359 3076054.819 0.321
322839.214 3076054.959 0.299
322839.057 3076055.107 0.322
322838.889 3076055.266 0.311
322838.745 3076055.329 0.295
322838.581 3076055.489 0.318
322838.439 3076055.706 0.304
322838.341 3076055.892 0.286
322838.219 3076056.074 0.308
322838.073 3076056.239 0.288
322837.948 3076056.333 0.292
322837.811 3076056.498 0.316
322837.693 3076056.684 0.317
322837.578 3076056.864 0.295
322837.461 3076057.038 0.328
322837.302 3076057.197 0.319
322837.165 3076057.282 0.308
322836.994 3076057.453 0.331
322836.834 3076057.666 0.315
322836.731 3076057.830 0.287
322836.605 3076057.990 0.318
322836.411 3076058.133 0.294
322836.266 3076058.243 0.280
322836.094 3076058.380 0.306
322835.920 3076058.573 0.294
322835.808 3076058.726 0.297
322835.640 3076058.887 0.323
322835.437 3076059.057 0.309
322835.304 3076059.159 0.275
322835.113 3076059.302 0.313
322834.967 3076059.524 0.310
322834.865 3076059.663 0.287
322834.726 3076059.848 0.322
322834.545 3076060.042 0.307
322834.410 3076060.155 0.273
322834.230 3076060.332 0.302
322834.072 3076060.539 0.295
322833.961 3076060.700 0.266
322833.806 3076060.885 0.306
322833.633 3076061.049 0.299
322833.493 3076061.168 0.265
322833.326 3076061.311 0.301
322833.180 3076061.502 0.297
322833.031 3076061.658 0.252
322832.896 3076061.837 0.291
322832.725 3076061.998 0.293
322832.575 3076062.119 0.265
322832.392 3076062.265 0.304
322832.231 3076062.468 0.304
322832.093 3076062.624 0.277
322831.938 3076062.800 0.300
322831.763 3076062.959 0.292
322831.605 3076063.054 0.258
322831.440 3076063.181 0.285
322831.298 3076063.354 0.289
322831.130 3076063.521 0.245
322830.974 3076063.689 0.272
322830.807 3076063.808 0.276
322830.654 3076063.924 0.248
322830.494 3076064.037 0.272
322830.324 3076064.193 0.272
322830.136 3076064.356 0.228
322829.981 3076064.504 0.244
322829.821 3076064.646 0.251
322829.643 3076064.791 0.220
322829.492 3076064.899 0.239
322829.341 3076065.060 0.264
322829.171 3076065.246 0.239
322829.036 3076065.403 0.246
322828.890 3076065.550 0.269
322828.710 3076065.686 0.253
322828.590 3076065.760 0.255
322828.419 3076065.896 0.278
322828.250 3076066.094 0.258
322828.117 3076066.230 0.241
322827.947 3076066.387 0.263
322827.761 3076066.518 0.250
322827.626 3076066.608 0.220
322827.452 3076066.753 0.242
322827.310 3076066.937 0.234
322827.176 3076067.072 0.208
322827.034 3076067.237 0.233
322826.871 3076067.381 0.227
322826.723 3076067.521 0.203
322826.564 3076067.655 0.239
322826.441 3076067.833 0.255
322826.283 3076068.014 0.216
322826.153 3076068.189 0.245
322826.012 3076068.340 0.252
322825.859 3076068.480 0.220
322825.712 3076068.594 0.233
322825.581 3076068.755 0.234
322825.438 3076068.940 0.220
322825.333 3076069.081 0.214
322825.204 3076069.234 0.243
322825.030 3076069.377 0.230
322824.899 3076069.468 0.212
322824.737 3076069.601 0.242
322824.608 3076069.775 0.242
322824.481 3076069.913 0.204
322824.361 3076070.088 0.248
322824.204 3076070.225 0.241
322824.055 3076070.359 0.224
322823.913 3076070.431 0.238
322823.772 3076070.555 0.259
322823.668 3076070.710 0.252
322823.600 3076070.833 0.229
322823.489 3076070.932 0.257
322823.350 3076070.955 0.247
322823.241 3076070.934 0.219
322823.117 3076070.937 0.221
322823.015 3076070.962 0.226
322822.950 3076071.017 0.235
322822.852 3076071.106 0.241
322822.718 3076071.249 0.222
322822.579 3076071.423 0.232
322822.445 3076071.571 0.216
322822.312 3076071.701 0.187
322822.182 3076071.782 0.218
322822.034 3076071.925 0.219
322821.880 3076072.077 0.194
322821.782 3076072.211 0.199
322821.629 3076072.359 0.220
322821.453 3076072.495 0.205
322821.328 3076072.592 0.183
322821.164 3076072.737 0.219
322821.018 3076072.914 0.214
322820.891 3076073.041 0.191
322820.738 3076073.190 0.218
322820.562 3076073.333 0.212
322820.430 3076073.429 0.184
322820.275 3076073.551 0.220
322820.134 3076073.692 0.217
322819.969 3076073.811 0.187
322819.833 3076073.941 0.203
322819.671 3076074.040 0.203
322819.484 3076074.139 0.190
322819.327 3076074.200 0.176
322819.143 3076074.330 0.194
322818.962 3076074.482 0.173
322818.825 3076074.613 0.181
322818.654 3076074.738 0.200
322818.459 3076074.844 0.178
322818.304 3076074.927 0.178
322818.114 3076075.093 0.189
322817.932 3076075.273 0.168
322817.799 3076075.402 0.160
322817.643 3076075.544 0.182
322817.458 3076075.674 0.165
322817.324 3076075.755 0.161
322817.146 3076075.906 0.195
322816.957 3076076.114 0.167
322816.826 3076076.261 0.155
322816.695 3076076.413 0.195
322816.514 3076076.574 0.175
322816.383 3076076.666 0.173
322816.212 3076076.859 0.201
322816.054 3076077.102 0.183
322815.930 3076077.288 0.170
322815.798 3076077.470 0.197
322815.641 3076077.651 0.180
322815.524 3076077.756 0.189
322815.373 3076077.937 0.217
322815.205 3076078.149 0.181
322815.092 3076078.322 0.189
322814.935 3076078.500 0.199
322814.745 3076078.640 0.176
322814.599 3076078.712 0.171
322814.422 3076078.876 0.195
322814.227 3076079.049 0.167
322814.083 3076079.221 0.179
322813.906 3076079.382 0.201
322813.720 3076079.528 0.170
322813.558 3076079.638 0.189
322813.384 3076079.812 0.202
322813.205 3076080.007 0.168
322813.089 3076080.167 0.182
322812.947 3076080.314 0.203
322812.758 3076080.462 0.180
322812.620 3076080.558 0.179
322812.465 3076080.739 0.194
322812.308 3076080.942 0.166
322812.197 3076081.110 0.164
322812.058 3076081.282 0.196
322811.886 3076081.434 0.181
322811.749 3076081.519 0.200
322811.565 3076081.677 0.226
322811.385 3076081.866 0.189
322811.276 3076082.023 0.193
322811.101 3076082.183 0.206
322810.892 3076082.343 0.174
322810.765 3076082.450 0.178
322810.617 3076082.599 0.205
322810.491 3076082.737 0.200
322810.385 3076082.884 0.182
322810.238 3076083.029 0.214
322810.059 3076083.155 0.206
322809.896 3076083.246 0.187
322809.741 3076083.332 0.223
322809.609 3076083.460 0.233
322809.464 3076083.608 0.204
322809.331 3076083.741 0.229
322809.169 3076083.894 0.223
322809.001 3076084.045 0.189
322808.860 3076084.130 0.213
322808.729 3076084.275 0.224
322808.623 3076084.480 0.198
322808.564 3076084.643 0.219
322808.431 3076084.808 0.235
322808.274 3076084.958 0.204
322808.139 3076085.058 0.223
322807.996 3076085.207 0.237
322807.840 3076085.403 0.201
322807.724 3076085.583 0.207
322807.593 3076085.752 0.238
322807.439 3076085.891 0.219
322807.326 3076085.987 0.222
322807.166 3076086.150 0.247
322807.011 3076086.353 0.227
322806.909 3076086.512 0.218
322806.761 3076086.706 0.248
322806.600 3076086.889 0.245
322806.475 3076086.993 0.235
322806.311 3076087.159 0.263
322806.154 3076087.361 0.244
322806.053 3076087.509 0.237
322805.911 3076087.696 0.265
322805.736 3076087.883 0.251
322805.610 3076087.965 0.259
322805.449 3076088.129 0.292
322805.280 3076088.327 0.283
322805.171 3076088.497 0.268
322805.024 3076088.678 0.299
322804.855 3076088.870 0.280
322804.717 3076088.965 0.273
322804.563 3076089.126 0.296
322804.410 3076089.314 0.272
322804.308 3076089.482 0.259
322804.148 3076089.678 0.286
322803.952 3076089.854 0.266
322803.808 3076089.948 0.259
322803.631 3076090.107 0.290
322803.453 3076090.298 0.271
322803.338 3076090.457 0.276
322803.164 3076090.632 0.298
322802.950 3076090.773 0.283
322802.808 3076090.859 0.267
322802.627 3076091.014 0.294
322802.456 3076091.210 0.263
322802.314 3076091.372 0.260
322802.147 3076091.519 0.275
322801.960 3076091.663 0.267
322801.830 3076091.748 0.264
322801.667 3076091.901 0.291
322801.519 3076092.077 0.283
322801.402 3076092.216 0.261
322801.244 3076092.372 0.292
322801.073 3076092.510 0.289
322800.948 3076092.620 0.262
322800.794 3076092.770 0.298
322800.664 3076092.956 0.296
322800.518 3076093.103 0.247
322800.372 3076093.272 0.287
322800.200 3076093.421 0.288
322800.068 3076093.553 0.261
322799.905 3076093.691 0.301
322799.773 3076093.869 0.315
322799.623 3076094.033 0.267
322799.473 3076094.202 0.302
322799.309 3076094.346 0.301
322799.160 3076094.490 0.274
322799.006 3076094.621 0.304
322798.861 3076094.789 0.300
322798.698 3076094.948 0.264
322798.559 3076095.106 0.295
322798.407 3076095.247 0.303
322798.233 3076095.374 0.277
322798.088 3076095.485 0.297
322797.933 3076095.650 0.311
322797.759 3076095.824 0.288
322797.627 3076095.972 0.293
322797.480 3076096.112 0.308
322797.289 3076096.249 0.292
322797.175 3076096.316 0.288
322797.007 3076096.459 0.305
322796.855 3076096.643 0.296
322796.725 3076096.782 0.264
322796.566 3076096.932 0.301
322796.383 3076097.051 0.289
322796.248 3076097.145 0.262
322796.085 3076097.267 0.299
322795.941 3076097.458 0.299
322795.808 3076097.609 0.251
322795.684 3076097.767 0.295
322795.536 3076097.893 0.286
322795.387 3076098.023 0.255
322795.255 3076098.129 0.283
322795.125 3076098.275 0.292
322794.988 3076098.446 0.257
322794.898 3076098.589 0.261
322794.754 3076098.751 0.283
322794.592 3076098.902 0.282
322794.483 3076098.988 0.272
322794.342 3076099.144 0.300
322794.246 3076099.337 0.296
322794.151 3076099.518 0.248
322794.035 3076099.696 0.284
322793.895 3076099.821 0.282
322793.764 3076099.921 0.254
322793.629 3076100.032 0.282
322793.512 3076100.191 0.283
322793.392 3076100.376 0.258
322793.338 3076100.545 0.255
322793.205 3076100.692 0.282
322793.079 3076100.760 0.284
322792.963 3076100.822 0.235
322792.801 3076100.945 0.260
322792.666 3076101.151 0.235
322792.546 3076101.335 0.229
322792.384 3076101.521 0.185
322792.165 3076101.631 0.173
322792.036 3076101.726 0.241
322791.883 3076101.880 0.263
322791.713 3076102.078 0.237
322791.605 3076102.227 0.249
322791.479 3076102.374 0.289
322791.288 3076102.495 0.281
322791.151 3076102.588 0.296
322790.986 3076102.728 0.322
322790.812 3076102.911 0.303
322790.667 3076103.072 0.300
322790.503 3076103.226 0.324
322790.301 3076103.381 0.302
322790.171 3076103.476 0.306
322789.999 3076103.632 0.330
322789.851 3076103.817 0.321
322789.726 3076103.959 0.301
322789.572 3076104.120 0.333
322789.375 3076104.242 0.326
322789.245 3076104.345 0.310
322789.065 3076104.482 0.342
322788.902 3076104.670 0.339
322788.757 3076104.817 0.297
322788.599 3076104.972 0.340
322788.419 3076105.099 0.331
322788.286 3076105.199 0.302
322788.131 3076105.336 0.333
322787.986 3076105.511 0.335
322787.821 3076105.668 0.284
322787.667 3076105.834 0.318
322787.503 3076105.967 0.307
322787.328 3076106.088 0.295
322787.174 3076106.161 0.321
322787.029 3076106.309 0.328
322786.871 3076106.494 0.310
322786.755 3076106.651 0.315
322786.604 3076106.801 0.323
322786.421 3076106.936 0.302
322786.300 3076107.019 0.314
322786.142 3076107.175 0.330
322785.992 3076107.374 0.331
322785.883 3076107.519 0.312
322785.734 3076107.670 0.341
322785.567 3076107.785 0.335
322785.430 3076107.862 0.309
322785.261 3076107.986 0.335
322785.110 3076108.154 0.338
322784.982 3076108.283 0.316
322784.833 3076108.418 0.345
322784.679 3076108.528 0.339
322784.507 3076108.626 0.309
322784.377 3076108.677 0.318
322784.212 3076108.806 0.327
322784.092 3076108.974 0.326
322783.994 3076109.119 0.268
322783.846 3076109.282 0.305
322783.689 3076109.382 0.295
322783.564 3076109.488 0.252
322783.381 3076109.619 0.277
322783.207 3076109.847 0.262
322783.080 3076110.006 0.251
322782.922 3076110.179 0.295
322782.728 3076110.327 0.285
322782.584 3076110.436 0.285
322782.413 3076110.594 0.317
322782.266 3076110.788 0.313
322782.138 3076110.936 0.276
322781.983 3076111.109 0.321
322781.804 3076111.250 0.310
322781.682 3076111.332 0.296
322781.512 3076111.465 0.324
322781.351 3076111.667 0.316
322781.208 3076111.812 0.273
322781.049 3076111.971 0.314
322780.869 3076112.097 0.301
322780.721 3076112.227 0.270
322780.553 3076112.354 0.316
322780.415 3076112.510 0.323
322780.252 3076112.669 0.275
322780.106 3076112.817 0.305
322779.947 3076112.943 0.296
322779.775 3076113.059 0.267
322779.636 3076113.154 0.298
322779.484 3076113.313 0.311
322779.306 3076113.502 0.276
322779.187 3076113.662 0.289
322779.042 3076113.823 0.302
322778.868 3076113.969 0.283
322778.750 3076114.059 0.289
322778.599 3076114.223 0.317
322778.455 3076114.439 0.298
322778.347 3076114.606 0.278
322778.210 3076114.776 0.314
322778.033 3076114.908 0.292
322777.904 3076115.010 0.284
322777.741 3076115.172 0.308
322777.599 3076115.380 0.289
322777.495 3076115.526 0.261
322777.357 3076115.691 0.297
322777.200 3076115.825 0.291
322777.068 3076115.944 0.261
322776.931 3076116.086 0.298
322776.809 3076116.250 0.300
322776.673 3076116.404 0.257
322776.553 3076116.545 0.278
322776.404 3076116.686 0.290
322776.232 3076116.826 0.253
322776.102 3076116.904 0.267
322775.945 3076117.039 0.291
322775.785 3076117.220 0.270
322775.669 3076117.366 0.261
322775.511 3076117.517 0.283
322775.312 3076117.666 0.258
322775.166 3076117.762 0.255
322774.979 3076117.930 0.279
322774.801 3076118.132 0.248
322774.678 3076118.272 0.242
322774.511 3076118.434 0.273
322774.338 3076118.566 0.265
322774.198 3076118.683 0.256
322774.014 3076118.841 0.290
322773.855 3076119.040 0.279
322773.728 3076119.185 0.245
322773.566 3076119.349 0.286
322773.367 3076119.513 0.277
322773.238 3076119.611 0.267
322773.065 3076119.763 0.294
322772.910 3076119.970 0.297
322772.781 3076120.115 0.268
322772.623 3076120.281 0.304
322772.444 3076120.422 0.298
322772.311 3076120.520 0.281
322772.137 3076120.677 0.310
322771.983 3076120.885 0.306
322771.845 3076121.032 0.264
322771.704 3076121.197 0.314
322771.540 3076121.334 0.305
322771.410 3076121.458 0.275
322771.256 3076121.603 0.315
322771.124 3076121.786 0.314
322770.977 3076121.949 0.263
322770.846 3076122.127 0.306
322770.692 3076122.272 0.304
322770.544 3076122.411 0.272
322770.397 3076122.550 0.312
322770.258 3076122.725 0.327
322770.099 3076122.887 0.279
322769.960 3076123.036 0.328
322769.799 3076123.175 0.325
322769.616 3076123.311 0.292
322769.465 3076123.412 0.324
322769.307 3076123.559 0.333
322769.115 3076123.724 0.299
322768.969 3076123.875 0.308
322768.797 3076124.013 0.321
322768.604 3076124.137 0.302
322768.452 3076124.242 0.302
322768.263 3076124.383 0.322
322768.083 3076124.553 0.299
322767.939 3076124.676 0.293
322767.773 3076124.809 0.328
322767.573 3076124.937 0.313
322767.443 3076125.029 0.306
322767.260 3076125.182 0.325
322767.078 3076125.386 0.304
322766.955 3076125.523 0.304
322766.794 3076125.671 0.322
322766.593 3076125.803 0.307
322766.458 3076125.887 0.291
322766.283 3076126.036 0.313
322766.116 3076126.216 0.314
322765.988 3076126.343 0.289
322765.819 3076126.495 0.314
322765.645 3076126.608 0.303
322765.476 3076126.710 0.267
322765.289 3076126.811 0.306
322765.131 3076126.986 0.310
322764.960 3076127.124 0.262
322764.798 3076127.285 0.303
322764.634 3076127.420 0.303
322764.489 3076127.538 0.277
322764.325 3076127.662 0.308
322764.171 3076127.824 0.313
322764.005 3076127.981 0.260
322763.844 3076128.124 0.292
322763.679 3076128.253 0.300
322763.500 3076128.367 0.262
322763.343 3076128.473 0.288
322763.180 3076128.625 0.299
322762.995 3076128.787 0.264
322762.829 3076128.939 0.280
322762.651 3076129.074 0.285
322762.453 3076129.195 0.264
322762.311 3076129.268 0.267
322762.138 3076129.416 0.289
322761.940 3076129.590 0.267
322761.803 3076129.737 0.273
322761.636 3076129.860 0.293
322761.428 3076129.973 0.275
322761.300 3076130.033 0.262
322761.114 3076130.151 0.285
322760.933 3076130.314 0.277
322760.786 3076130.429 0.252
322760.615 3076130.573 0.281
322760.432 3076130.689 0.274
322760.288 3076130.793 0.244
322760.113 3076130.910 0.277
322759.957 3076131.110 0.278
322759.800 3076131.275 0.231
322759.650 3076131.452 0.264
322759.488 3076131.599 0.262
322759.348 3076131.717 0.233
322759.201 3076131.856 0.265
322759.071 3076132.025 0.276
322758.909 3076132.192 0.227
322758.782 3076132.353 0.261
322758.620 3076132.493 0.270
322758.436 3076132.623 0.241
322758.290 3076132.725 0.264
322758.134 3076132.887 0.283
322757.963 3076133.063 0.248
322757.832 3076133.195 0.255
322757.680 3076133.333 0.262
322757.494 3076133.456 0.237
322757.352 3076133.552 0.252
322757.186 3076133.698 0.265
322757.007 3076133.875 0.242
322756.880 3076134.017 0.248
322756.708 3076134.166 0.261
322756.502 3076134.315 0.242
322756.355 3076134.414 0.247
322756.178 3076134.574 0.265
322755.995 3076134.763 0.242
322755.871 3076134.901 0.240
322755.712 3076135.051 0.257
322755.517 3076135.196 0.242
322755.383 3076135.300 0.240
322755.210 3076135.454 0.269
322755.037 3076135.663 0.251
322754.923 3076135.806 0.252
322754.769 3076135.973 0.277
322754.572 3076136.114 0.258
322754.442 3076136.211 0.248
322754.265 3076136.361 0.268
322754.074 3076136.550 0.251
322753.937 3076136.683 0.233
322753.765 3076136.829 0.262
322753.561 3076136.959 0.257
322753.404 3076137.042 0.235
322753.214 3076137.188 0.257
322753.052 3076137.357 0.253
322752.918 3076137.465 0.228
322752.751 3076137.608 0.258
322752.554 3076137.713 0.249
322752.390 3076137.821 0.224
322752.189 3076137.954 0.257
322752.007 3076138.137 0.255
322751.844 3076138.263 0.223
322751.667 3076138.408 0.258
322751.475 3076138.522 0.244
322751.318 3076138.617 0.222
322751.137 3076138.752 0.247
322750.981 3076138.952 0.255
322750.821 3076139.110 0.217
322750.661 3076139.270 0.248
322750.482 3076139.409 0.238
322750.340 3076139.538 0.218
322750.171 3076139.677 0.256
322750.017 3076139.867 0.263
322749.848 3076140.021 0.217
322749.684 3076140.177 0.248
322749.507 3076140.321 0.253
322749.369 3076140.432 0.224
322749.188 3076140.580 0.257
322749.031 3076140.770 0.263
322748.862 3076140.909 0.224
322748.695 3076141.061 0.261
322748.507 3076141.193 0.257
322748.357 3076141.307 0.227
322748.177 3076141.461 0.259
322748.014 3076141.653 0.271
322747.858 3076141.780 0.240
322747.677 3076141.957 0.279
322747.472 3076142.131 0.268
322747.339 3076142.242 0.246
322747.156 3076142.397 0.274
322746.991 3076142.594 0.279
322746.848 3076142.734 0.249
322746.688 3076142.905 0.279
322746.485 3076143.058 0.272
322746.349 3076143.184 0.254
322746.164 3076143.356 0.290
322745.963 3076143.560 0.276
322745.811 3076143.700 0.257
322745.640 3076143.849 0.282
322745.428 3076144.009 0.258
322745.285 3076144.124 0.254
322745.100 3076144.285 0.279
322744.901 3076144.481 0.258
322744.749 3076144.639 0.248
322744.589 3076144.789 0.280
322744.386 3076144.946 0.265
322744.228 3076145.058 0.268
322744.051 3076145.215 0.288
322743.853 3076145.392 0.263
322743.715 3076145.538 0.283
322743.545 3076145.681 0.301
322743.338 3076145.829 0.265
322743.180 3076145.943 0.290
322743.005 3076146.098 0.297
322742.809 3076146.278 0.260
322742.655 3076146.450 0.291
322742.482 3076146.610 0.297
322742.283 3076146.764 0.262
322742.097 3076146.880 0.293
322741.936 3076147.058 0.305
322741.752 3076147.225 0.265
322741.587 3076147.405 0.300
322741.395 3076147.563 0.307
322741.242 3076147.702 0.274
322741.055 3076147.850 0.316
322740.886 3076148.045 0.323
322740.710 3076148.175 0.281
322740.528 3076148.348 0.323
322740.326 3076148.500 0.317
322740.181 3076148.610 0.287
322740.001 3076148.747 0.325
322739.836 3076148.931 0.324
322739.672 3076149.074 0.283
322739.505 3076149.237 0.325
322739.321 3076149.376 0.321
322739.169 3076149.479 0.288
322738.987 3076149.605 0.330
322738.824 3076149.777 0.336
322738.665 3076149.907 0.301
322738.509 3076150.065 0.329
322738.327 3076150.199 0.336
322738.151 3076150.307 0.298
322737.984 3076150.394 0.332
322737.805 3076150.541 0.338
