322817.671 3076129.571 2.022
322817.655 3076129.548 2.018
322817.619 3076129.505 2.020
322817.536 3076129.447 2.009
322817.436 3076129.386 1.982
322817.305 3076129.323 1.992
322817.212 3076129.264 1.987
322817.160 3076129.172 1.996
322817.152 3076129.075 1.968
322817.186 3076128.994 1.912
322817.158 3076128.900 1.878
322817.074 3076128.827 1.886
322816.967 3076128.780 1.900
322816.842 3076128.705 1.935
322816.756 3076128.610 1.923
322816.723 3076128.502 1.858
322816.662 3076128.410 1.828
322816.573 3076128.293 1.837
322816.411 3076128.213 1.794
322816.230 3076128.119 1.772
322816.083 3076128.012 1.788
322816.003 3076127.928 1.766
322816.003 3076127.849 1.713
322815.963 3076127.767 1.723
322815.941 3076127.699 1.745
322815.814 3076127.656 1.740
322815.824 3076127.665 1.720
322815.819 3076127.665 1.720
322815.808 3076127.660 1.724
322815.795 3076127.669 1.724
322815.847 3076127.709 1.685
322815.868 3076127.724 1.671
322815.870 3076127.727 1.672
322815.869 3076127.713 1.680
322815.857 3076127.702 1.687
322815.822 3076127.678 1.716
322815.821 3076127.651 1.728
322815.818 3076127.660 1.724
322815.813 3076127.640 1.727
322815.793 3076127.649 1.745
322815.701 3076127.653 1.722
322815.708 3076127.647 1.719
322815.716 3076127.641 1.721
322815.710 3076127.631 1.725
322815.711 3076127.629 1.724
322815.712 3076127.636 1.721
322815.721 3076127.645 1.721
322815.724 3076127.650 1.723
322815.726 3076127.660 1.723
322815.731 3076127.679 1.713
322815.716 3076127.679 1.719
322815.685 3076127.672 1.731
322815.657 3076127.663 1.728
322815.634 3076127.657 1.729
322815.625 3076127.646 1.724
322815.617 3076127.634 1.721
322815.601 3076127.603 1.717
322815.571 3076127.528 1.728
322815.541 3076127.443 1.703
322815.558 3076127.403 1.673
322815.557 3076127.297 1.683
322815.483 3076127.181 1.702
322815.380 3076127.104 1.673
322815.306 3076126.998 1.710
322815.203 3076126.899 1.711
322815.146 3076126.783 1.672
322815.078 3076126.682 1.678
322815.052 3076126.567 1.685
322814.947 3076126.490 1.650
322814.843 3076126.428 1.617
322814.699 3076126.303 1.642
322814.602 3076126.199 1.643
322814.593 3076126.098 1.606
322814.539 3076125.994 1.591
322814.489 3076125.885 1.611
322814.377 3076125.807 1.601
322814.266 3076125.730 1.551
322814.162 3076125.630 1.583
322814.052 3076125.544 1.592
322813.981 3076125.432 1.593
322813.934 3076125.325 1.558
322813.837 3076125.209 1.557
322813.736 3076125.099 1.578
322813.596 3076125.014 1.537
322813.465 3076124.922 1.555
322813.318 3076124.827 1.553
322813.205 3076124.707 1.541
322813.149 3076124.608 1.525
322813.057 3076124.472 1.537
322812.981 3076124.360 1.548
322812.869 3076124.280 1.509
322812.757 3076124.179 1.543
322812.612 3076124.075 1.539
322812.513 3076123.942 1.521
322812.468 3076123.831 1.488
322812.370 3076123.682 1.528
322812.256 3076123.570 1.516
322812.132 3076123.492 1.450
322811.993 3076123.377 1.487
322811.876 3076123.268 1.478
322811.774 3076123.134 1.476
322811.696 3076123.021 1.498
322811.616 3076122.910 1.506
322811.520 3076122.838 1.470
322811.399 3076122.798 1.464
322811.273 3076122.720 1.490
322811.198 3076122.623 1.487
322811.155 3076122.507 1.453
322811.069 3076122.398 1.444
322811.002 3076122.298 1.454
322810.872 3076122.201 1.424
322810.753 3076122.090 1.426
322810.605 3076121.965 1.458
322810.474 3076121.825 1.449
322810.438 3076121.709 1.440
322810.377 3076121.581 1.456
322810.293 3076121.467 1.450
322810.182 3076121.423 1.395
322810.012 3076121.352 1.365
322809.878 3076121.206 1.374
322809.923 3076121.096 1.381
322809.853 3076120.951 1.418
322809.770 3076120.828 1.437
322809.634 3076120.717 1.420
322809.500 3076120.623 1.421
322809.378 3076120.507 1.434
322809.259 3076120.399 1.411
322809.248 3076120.301 1.358
322809.113 3076120.139 1.384
322808.998 3076120.007 1.391
322808.880 3076119.936 1.359
322808.746 3076119.824 1.378
322808.614 3076119.705 1.381
322808.549 3076119.568 1.324
322808.443 3076119.456 1.325
322808.365 3076119.339 1.329
322808.231 3076119.258 1.281
322808.052 3076119.141 1.312
322807.919 3076119.026 1.304
322807.856 3076118.905 1.252
322807.777 3076118.798 1.252
322807.674 3076118.671 1.246
322807.536 3076118.570 1.188
322807.432 3076118.448 1.199
322807.270 3076118.314 1.217
322807.174 3076118.170 1.184
322807.090 3076118.076 1.175
322806.968 3076117.927 1.186
322806.826 3076117.809 1.149
322806.723 3076117.696 1.147
322806.559 3076117.554 1.161
322806.452 3076117.414 1.128
322806.366 3076117.314 1.098
322806.240 3076117.157 1.115
322806.102 3076117.047 1.075
322805.985 3076116.920 1.074
322805.818 3076116.776 1.094
322805.710 3076116.631 1.058
322805.634 3076116.501 1.042
322805.499 3076116.319 1.059
322805.360 3076116.180 1.026
322805.232 3076116.061 1.018
322805.070 3076115.888 1.043
322804.959 3076115.738 1.001
322804.892 3076115.625 0.968
322804.762 3076115.451 0.987
322804.615 3076115.318 0.947
322804.492 3076115.202 0.941
322804.318 3076115.052 0.958
322804.209 3076114.904 0.923
322804.128 3076114.804 0.889
322804.016 3076114.648 0.914
322803.895 3076114.531 0.878
322803.773 3076114.402 0.876
322803.617 3076114.243 0.900
322803.493 3076114.122 0.882
322803.400 3076113.984 0.843
322803.296 3076113.837 0.859
322803.179 3076113.699 0.856
322803.022 3076113.577 0.816
322802.891 3076113.415 0.866
322802.753 3076113.275 0.863
322802.666 3076113.131 0.826
322802.578 3076113.025 0.838
322802.477 3076112.900 0.843
322802.348 3076112.776 0.792
322802.207 3076112.655 0.822
322802.061 3076112.521 0.835
322801.943 3076112.383 0.807
322801.869 3076112.256 0.791
322801.742 3076112.074 0.812
322801.613 3076111.913 0.792
322801.472 3076111.795 0.775
322801.282 3076111.614 0.804
322801.155 3076111.447 0.770
322801.102 3076111.321 0.741
322800.973 3076111.143 0.758
322800.843 3076111.018 0.713
322800.718 3076110.892 0.704
322800.535 3076110.688 0.733
322800.425 3076110.516 0.701
322800.375 3076110.389 0.672
322800.252 3076110.186 0.696
322800.097 3076110.047 0.657
322799.943 3076109.923 0.684
322799.764 3076109.777 0.697
322799.641 3076109.629 0.657
322799.554 3076109.510 0.643
322799.418 3076109.354 0.664
322799.261 3076109.228 0.620
322799.136 3076109.109 0.650
322798.952 3076108.975 0.657
322798.841 3076108.812 0.620
322798.789 3076108.680 0.606
322798.677 3076108.510 0.602
322798.519 3076108.362 0.563
322798.361 3076108.271 0.548
322798.172 3076108.108 0.583
322798.052 3076107.965 0.533
322797.989 3076107.843 0.498
322797.837 3076107.670 0.525
322797.709 3076107.543 0.487
322797.556 3076107.406 0.488
322797.372 3076107.230 0.516
322797.238 3076107.048 0.470
322797.141 3076106.893 0.473
322797.021 3076106.708 0.477
322796.851 3076106.578 0.419
322796.692 3076106.450 0.443
322796.510 3076106.302 0.437
322796.411 3076106.132 0.383
322796.317 3076105.980 0.417
322796.178 3076105.821 0.405
322796.031 3076105.674 0.372
322795.874 3076105.519 0.416
322795.733 3076105.372 0.400
322795.649 3076105.222 0.352
322795.542 3076105.063 0.381
322795.418 3076104.901 0.383
322795.277 3076104.752 0.338
322795.158 3076104.598 0.381
322795.021 3076104.450 0.374
322794.913 3076104.296 0.317
322794.805 3076104.160 0.331
322794.690 3076103.995 0.335
322794.539 3076103.847 0.292
322794.415 3076103.690 0.332
322794.246 3076103.528 0.332
322794.148 3076103.358 0.281
322794.047 3076103.223 0.305
322793.951 3076103.048 0.313
322793.816 3076102.906 0.269
322793.703 3076102.779 0.272
322793.562 3076102.635 0.282
322793.470 3076102.479 0.240
322793.407 3076102.359 0.244
322793.294 3076102.194 0.265
322793.153 3076102.063 0.237
322793.029 3076101.935 0.233
322792.885 3076101.785 0.263
322792.753 3076101.649 0.245
322792.654 3076101.500 0.211
322792.515 3076101.310 0.247
322792.406 3076101.151 0.268
322792.258 3076101.030 0.249
322792.113 3076100.889 0.311
322791.982 3076100.787 0.308
322791.861 3076100.646 0.270
322791.776 3076100.525 0.282
322791.640 3076100.355 0.301
322791.485 3076100.215 0.273
322791.344 3076100.097 0.291
322791.165 3076099.956 0.298
322791.030 3076099.807 0.276
322790.959 3076099.671 0.243
322790.850 3076099.495 0.272
322790.732 3076099.351 0.254
322790.612 3076099.243 0.206
322790.443 3076099.081 0.260
322790.320 3076098.949 0.237
322790.224 3076098.810 0.173
322790.142 3076098.657 0.201
322790.023 3076098.520 0.211
322789.875 3076098.404 0.191
322789.704 3076098.314 0.175
322789.542 3076098.176 0.206
322789.423 3076098.036 0.183
322789.357 3076097.898 0.133
322789.259 3076097.723 0.149
322789.130 3076097.574 0.135
322788.974 3076097.440 0.083
322788.788 3076097.275 0.133
322788.642 3076097.117 0.116
322788.552 3076096.972 0.070
322788.449 3076096.802 0.101
322788.337 3076096.650 0.080
322788.185 3076096.539 0.032
322788.014 3076096.382 0.073
322787.893 3076096.233 0.048
322787.835 3076096.104 0.014
322787.723 3076095.910 0.050
322787.602 3076095.767 0.024
322787.476 3076095.685 -0.003
322787.300 3076095.545 0.031
322787.198 3076095.408 0.003
322787.162 3076095.301 -0.027
322787.069 3076095.151 -0.010
322786.955 3076095.033 -0.024
322786.816 3076094.958 -0.058
322786.652 3076094.851 -0.018
322786.514 3076094.756 -0.025
322786.392 3076094.636 -0.055
322786.326 3076094.503 -0.049
322786.180 3076094.365 -0.027
322786.027 3076094.271 -0.074
322785.896 3076094.186 -0.064
322785.711 3076094.073 -0.062
322785.597 3076093.939 -0.093
322785.512 3076093.818 -0.079
322785.412 3076093.693 -0.074
322785.268 3076093.600 -0.111
322785.091 3076093.508 -0.077
322784.871 3076093.415 -0.066
322784.742 3076093.291 -0.102
322784.692 3076093.190 -0.121
322784.581 3076093.043 -0.114
322784.456 3076092.912 -0.144
322784.331 3076092.792 -0.144
322784.170 3076092.637 -0.124
322784.068 3076092.484 -0.157
322783.999 3076092.363 -0.158
322783.886 3076092.204 -0.141
322783.757 3076092.103 -0.175
322783.614 3076092.001 -0.158
322783.475 3076091.922 -0.158
322783.394 3076091.784 -0.191
322783.346 3076091.673 -0.189
322783.252 3076091.535 -0.168
322783.130 3076091.426 -0.194
322783.006 3076091.347 -0.213
322782.850 3076091.210 -0.185
322782.741 3076091.090 -0.189
322782.678 3076090.966 -0.228
322782.605 3076090.821 -0.215
322782.502 3076090.681 -0.217
322782.378 3076090.574 -0.253
322782.248 3076090.452 -0.224
322782.141 3076090.338 -0.220
322782.068 3076090.190 -0.251
322781.978 3076090.066 -0.248
322781.867 3076089.912 -0.230
322781.735 3076089.785 -0.257
322781.626 3076089.681 -0.253
322781.478 3076089.550 -0.246
322781.375 3076089.420 -0.274
322781.333 3076089.311 -0.298
322781.250 3076089.162 -0.282
322781.139 3076089.040 -0.295
322781.018 3076088.935 -0.309
322780.884 3076088.809 -0.294
322780.777 3076088.694 -0.299
322780.744 3076088.581 -0.343
322780.709 3076088.464 -0.337
322780.653 3076088.338 -0.331
322780.554 3076088.244 -0.330
322780.448 3076088.177 -0.334
322780.335 3076088.125 -0.333
322780.242 3076088.036 -0.338
322780.240 3076087.941 -0.363
322780.225 3076087.819 -0.333
322780.162 3076087.752 -0.336
322780.080 3076087.762 -0.372
322779.956 3076087.745 -0.372
322779.849 3076087.713 -0.372
322779.796 3076087.648 -0.383
322779.753 3076087.560 -0.373
322779.695 3076087.470 -0.354
322779.632 3076087.463 -0.374
322779.550 3076087.478 -0.377
322779.502 3076087.442 -0.394
322779.544 3076087.343 -0.406
322779.571 3076087.223 -0.399
322779.639 3076087.105 -0.389
322779.706 3076087.025 -0.383
322779.760 3076086.994 -0.386
322779.710 3076087.123 -0.385
322779.692 3076087.132 -0.376
322779.671 3076087.157 -0.369
322779.654 3076087.146 -0.373
322779.656 3076087.095 -0.385
322779.677 3076087.019 -0.402
322779.672 3076086.968 -0.406
322779.648 3076086.938 -0.400
322779.617 3076086.928 -0.398
322779.590 3076086.922 -0.394
322779.558 3076086.918 -0.388
322779.530 3076086.920 -0.384
322779.516 3076086.916 -0.386
322779.455 3076086.952 -0.393
322779.414 3076086.988 -0.404
322779.350 3076087.013 -0.404
322779.271 3076086.981 -0.394
322779.200 3076086.917 -0.401
322779.165 3076086.837 -0.393
322779.101 3076086.816 -0.397
322779.051 3076086.851 -0.411
322778.981 3076086.844 -0.409
322778.934 3076086.783 -0.429
322778.894 3076086.701 -0.437
322778.850 3076086.628 -0.435
322778.819 3076086.582 -0.432
322778.765 3076086.610 -0.436
322778.703 3076086.617 -0.444
322778.648 3076086.585 -0.449
322778.643 3076086.496 -0.483
322778.625 3076086.398 -0.473
322778.609 3076086.350 -0.470
322778.637 3076086.345 -0.471
322778.661 3076086.345 -0.472
322778.643 3076086.336 -0.483
322778.572 3076086.283 -0.496
322778.460 3076086.207 -0.495
322778.331 3076086.129 -0.476
322778.264 3076086.080 -0.465
322778.272 3076086.093 -0.468
322778.320 3076086.100 -0.475
322778.369 3076086.118 -0.476
322778.333 3076086.112 -0.469
322778.160 3076086.126 -0.493
322778.108 3076086.125 -0.502
322778.090 3076086.130 -0.502
322778.102 3076086.133 -0.498
322778.126 3076086.143 -0.499
322778.144 3076086.153 -0.500
322778.132 3076086.150 -0.512
322778.107 3076086.116 -0.521
