323076.275 3075895.404 1.902
323076.275 3075895.396 1.903
323076.277 3075895.372 1.904
323076.281 3075895.324 1.918
323076.282 3075895.247 1.940
323076.262 3075895.177 1.963
323076.187 3075895.116 1.962
323076.089 3075895.085 1.957
323076.001 3075895.032 1.958
323075.891 3075894.931 1.962
323075.819 3075894.795 1.960
323075.819 3075894.701 1.928
323075.771 3075894.579 1.929
323075.687 3075894.438 1.954
323075.550 3075894.341 1.906
323075.431 3075894.261 1.914
323075.288 3075894.132 1.942
323075.215 3075893.984 1.901
323075.189 3075893.873 1.885
323075.098 3075893.737 1.915
323074.999 3075893.642 1.888
323074.872 3075893.538 1.858
323074.735 3075893.445 1.882
323074.604 3075893.325 1.867
323074.534 3075893.196 1.871
323074.487 3075893.082 1.847
323074.391 3075892.939 1.853
323074.302 3075892.846 1.853
323074.155 3075892.746 1.808
323074.004 3075892.622 1.821
323073.851 3075892.505 1.816
323073.768 3075892.381 1.776
323073.715 3075892.265 1.752
323073.571 3075892.094 1.772
323073.425 3075891.992 1.727
323073.284 3075891.852 1.749
323073.103 3075891.704 1.749
323073.011 3075891.549 1.693
323072.898 3075891.399 1.712
323072.796 3075891.250 1.711
323072.642 3075891.141 1.637
323072.495 3075890.989 1.684
323072.347 3075890.849 1.669
323072.272 3075890.707 1.628
323072.167 3075890.567 1.646
323072.043 3075890.424 1.633
323071.880 3075890.313 1.580
323071.737 3075890.157 1.638
323071.593 3075890.029 1.617
323071.508 3075889.891 1.579
323071.388 3075889.749 1.580
323071.267 3075889.595 1.596
323071.106 3075889.471 1.539
323070.966 3075889.312 1.586
323070.807 3075889.180 1.564
323070.727 3075889.017 1.513
323070.628 3075888.864 1.550
323070.520 3075888.707 1.540
323070.379 3075888.568 1.503
323070.264 3075888.404 1.533
323070.120 3075888.257 1.534
323070.035 3075888.104 1.489
323069.941 3075887.974 1.491
323069.825 3075887.813 1.499
323069.668 3075887.679 1.451
323069.540 3075887.549 1.488
323069.376 3075887.404 1.487
323069.265 3075887.248 1.451
323069.175 3075887.126 1.456
323069.053 3075886.953 1.466
323068.904 3075886.810 1.433
323068.766 3075886.703 1.433
323068.582 3075886.538 1.455
323068.467 3075886.400 1.420
323068.388 3075886.268 1.389
323068.248 3075886.062 1.427
323068.121 3075885.920 1.423
323067.968 3075885.804 1.399
323067.795 3075885.639 1.442
323067.660 3075885.516 1.435
323067.583 3075885.359 1.401
323067.513 3075885.223 1.415
323067.408 3075885.075 1.421
323067.254 3075884.978 1.374
323067.101 3075884.876 1.408
323066.950 3075884.782 1.404
323066.849 3075884.667 1.394
323066.817 3075884.542 1.356
323066.775 3075884.416 1.351
323066.675 3075884.275 1.372
323066.531 3075884.152 1.341
323066.412 3075884.020 1.362
323066.261 3075883.863 1.374
323066.154 3075883.720 1.363
323066.131 3075883.612 1.315
323066.053 3075883.471 1.323
323065.946 3075883.344 1.311
323065.772 3075883.238 1.273
323065.630 3075883.077 1.309
323065.494 3075882.944 1.306
323065.439 3075882.811 1.256
323065.343 3075882.670 1.266
323065.238 3075882.534 1.270
323065.083 3075882.420 1.209
323064.957 3075882.277 1.253
323064.802 3075882.140 1.254
323064.730 3075881.998 1.208
323064.651 3075881.865 1.215
323064.540 3075881.705 1.216
323064.373 3075881.569 1.168
323064.226 3075881.444 1.177
323064.076 3075881.288 1.181
323064.006 3075881.135 1.130
323063.927 3075881.018 1.129
323063.818 3075880.852 1.128
323063.654 3075880.715 1.077
323063.532 3075880.567 1.103
323063.370 3075880.421 1.101
323063.289 3075880.265 1.065
323063.199 3075880.143 1.052
323063.080 3075879.978 1.061
323062.932 3075879.847 1.016
323062.826 3075879.723 1.023
323062.671 3075879.577 1.028
323062.581 3075879.425 0.979
323062.467 3075879.311 0.967
323062.344 3075879.134 0.976
323062.189 3075879.000 0.940
323062.071 3075878.881 0.945
323061.916 3075878.732 0.961
323061.840 3075878.583 0.923
323061.739 3075878.460 0.931
323061.627 3075878.302 0.937
323061.478 3075878.183 0.898
323061.343 3075878.062 0.890
323061.184 3075877.899 0.909
323061.083 3075877.744 0.878
323061.033 3075877.610 0.839
323060.906 3075877.421 0.863
323060.765 3075877.281 0.830
323060.615 3075877.148 0.827
323060.456 3075876.985 0.850
323060.337 3075876.828 0.842
323060.291 3075876.694 0.790
323060.171 3075876.508 0.820
323060.059 3075876.370 0.801
323059.896 3075876.233 0.769
323059.729 3075876.064 0.813
323059.591 3075875.934 0.798
323059.502 3075875.786 0.752
323059.398 3075875.616 0.779
323059.271 3075875.451 0.785
323059.109 3075875.298 0.745
323058.951 3075875.137 0.800
323058.781 3075875.001 0.787
323058.672 3075874.829 0.733
323058.566 3075874.690 0.762
323058.433 3075874.517 0.763
323058.258 3075874.381 0.733
323058.089 3075874.220 0.798
323057.909 3075874.084 0.787
323057.791 3075873.927 0.740
323057.721 3075873.784 0.766
323057.609 3075873.609 0.760
323057.452 3075873.472 0.723
323057.286 3075873.327 0.748
323057.112 3075873.161 0.763
323057.003 3075873.001 0.718
323056.947 3075872.864 0.726
323056.818 3075872.688 0.738
323056.660 3075872.542 0.705
323056.520 3075872.418 0.702
323056.371 3075872.262 0.710
323056.279 3075872.092 0.679
323056.222 3075871.965 0.660
323056.103 3075871.779 0.677
323055.956 3075871.623 0.647
323055.804 3075871.500 0.665
323055.644 3075871.344 0.681
323055.545 3075871.186 0.660
323055.493 3075871.050 0.649
323055.381 3075870.878 0.659
323055.233 3075870.727 0.651
323055.064 3075870.614 0.605
323054.894 3075870.457 0.643
323054.767 3075870.294 0.620
323054.711 3075870.153 0.575
323054.572 3075869.944 0.603
323054.436 3075869.776 0.603
323054.287 3075869.669 0.594
323054.128 3075869.510 0.625
323053.990 3075869.369 0.616
323053.899 3075869.223 0.585
323053.832 3075869.105 0.614
323053.712 3075868.928 0.620
323053.546 3075868.773 0.592
323053.354 3075868.686 0.625
323053.167 3075868.566 0.640
323053.027 3075868.432 0.614
323052.960 3075868.314 0.608
323052.823 3075868.155 0.628
323052.689 3075868.033 0.615
323052.531 3075867.940 0.583
323052.382 3075867.822 0.614
323052.258 3075867.722 0.602
323052.152 3075867.574 0.563
323052.062 3075867.453 0.557
323051.920 3075867.299 0.564
323051.723 3075867.154 0.530
323051.563 3075867.005 0.542
323051.410 3075866.840 0.545
323051.334 3075866.682 0.502
323051.262 3075866.530 0.509
323051.158 3075866.382 0.508
323051.002 3075866.251 0.469
323050.864 3075866.111 0.490
323050.746 3075865.980 0.478
323050.661 3075865.842 0.439
323050.559 3075865.708 0.451
323050.451 3075865.570 0.452
323050.312 3075865.453 0.428
323050.175 3075865.326 0.437
323050.039 3075865.203 0.437
323049.940 3075865.062 0.402
323049.853 3075864.926 0.400
323049.753 3075864.794 0.406
323049.596 3075864.676 0.369
323049.464 3075864.572 0.376
323049.282 3075864.442 0.401
323049.143 3075864.302 0.360
323049.046 3075864.186 0.346
323048.909 3075864.050 0.348
323048.746 3075863.946 0.310
323048.583 3075863.821 0.337
323048.405 3075863.705 0.334
323048.273 3075863.562 0.303
323048.177 3075863.446 0.280
323048.039 3075863.293 0.290
323047.897 3075863.176 0.260
323047.771 3075863.050 0.263
323047.583 3075862.894 0.280
323047.455 3075862.731 0.242
323047.337 3075862.582 0.245
323047.199 3075862.403 0.246
323047.031 3075862.276 0.214
323046.891 3075862.146 0.246
323046.726 3075862.022 0.243
323046.611 3075861.869 0.200
323046.517 3075861.750 0.207
323046.388 3075861.604 0.195
323046.229 3075861.483 0.144
323046.070 3075861.346 0.173
323045.894 3075861.208 0.170
323045.763 3075861.056 0.126
323045.628 3075860.906 0.147
323045.480 3075860.767 0.128
323045.319 3075860.655 0.094
323045.140 3075860.527 0.132
323044.988 3075860.397 0.110
323044.893 3075860.259 0.063
323044.754 3075860.115 0.083
323044.584 3075859.981 0.055
323044.407 3075859.875 0.028
323044.222 3075859.728 0.064
323044.069 3075859.603 0.043
323043.959 3075859.473 0.000
323043.810 3075859.324 0.012
323043.654 3075859.190 -0.010
323043.475 3075859.058 -0.024
323043.266 3075858.891 0.007
323043.098 3075858.745 -0.022
323042.992 3075858.620 -0.048
323042.851 3075858.442 -0.041
323042.698 3075858.306 -0.070
323042.575 3075858.181 -0.079
323042.391 3075858.003 -0.051
323042.251 3075857.846 -0.084
323042.155 3075857.718 -0.081
323042.028 3075857.537 -0.074
323041.870 3075857.386 -0.104
323041.740 3075857.261 -0.104
323041.585 3075857.109 -0.072
323041.458 3075856.961 -0.097
323041.352 3075856.845 -0.110
323041.218 3075856.678 -0.096
323041.077 3075856.539 -0.103
323040.928 3075856.408 -0.114
323040.769 3075856.246 -0.079
323040.622 3075856.121 -0.099
323040.504 3075855.983 -0.140
323040.373 3075855.836 -0.121
323040.252 3075855.699 -0.116
323040.093 3075855.556 -0.157
323039.935 3075855.401 -0.119
323039.784 3075855.269 -0.121
323039.673 3075855.129 -0.151
323039.588 3075854.998 -0.135
323039.467 3075854.835 -0.138
323039.292 3075854.701 -0.169
323039.142 3075854.595 -0.150
323038.961 3075854.450 -0.145
323038.813 3075854.296 -0.166
323038.682 3075854.159 -0.149
323038.558 3075854.011 -0.155
323038.387 3075853.900 -0.186
323038.239 3075853.815 -0.170
323038.088 3075853.714 -0.165
323037.973 3075853.618 -0.178
323037.892 3075853.497 -0.199
323037.785 3075853.377 -0.188
323037.641 3075853.250 -0.180
323037.435 3075853.124 -0.202
323037.246 3075853.014 -0.187
323037.060 3075852.869 -0.181
323036.963 3075852.727 -0.229
323036.919 3075852.596 -0.232
323036.815 3075852.419 -0.238
323036.677 3075852.270 -0.268
323036.540 3075852.132 -0.263
323036.394 3075851.971 -0.242
323036.296 3075851.820 -0.272
323036.226 3075851.696 -0.272
323036.134 3075851.558 -0.278
323035.989 3075851.463 -0.315
323035.829 3075851.360 -0.289
323035.654 3075851.252 -0.280
323035.567 3075851.136 -0.293
323035.516 3075851.023 -0.308
323035.417 3075850.886 -0.297
323035.306 3075850.808 -0.306
323035.156 3075850.770 -0.316
323035.040 3075850.704 -0.320
323034.972 3075850.665 -0.334
323034.937 3075850.621 -0.330
323034.972 3075850.586 -0.337
323035.100 3075850.572 -0.334
323035.166 3075850.512 -0.328
323035.157 3075850.449 -0.318
323035.117 3075850.408 -0.310
323035.037 3075850.420 -0.324
323034.948 3075850.441 -0.334
323034.867 3075850.418 -0.338
323034.831 3075850.369 -0.340
323034.868 3075850.299 -0.355
323034.900 3075850.218 -0.348
323034.882 3075850.137 -0.346
323034.828 3075850.099 -0.341
323034.719 3075850.109 -0.358
323034.587 3075850.137 -0.350
323034.464 3075850.154 -0.354
323034.403 3075850.148 -0.368
323034.393 3075850.112 -0.376
323034.433 3075850.061 -0.393
323034.450 3075849.995 -0.395
323034.439 3075849.939 -0.388
323034.382 3075849.937 -0.394
323034.297 3075849.952 -0.372
323034.226 3075849.984 -0.375
323034.137 3075850.088 -0.394
323034.118 3075850.085 -0.393
323034.104 3075850.065 -0.385
323034.106 3075850.017 -0.382
323034.158 3075849.941 -0.380
323034.250 3075849.859 -0.385
323034.314 3075849.794 -0.387
323034.328 3075849.746 -0.378
