323019.490 3075942.911 2.081
323019.475 3075942.928 2.081
323019.484 3075942.912 2.079
323019.467 3075942.908 2.073
323019.547 3075942.810 2.072
323019.573 3075942.775 2.071
323019.462 3075942.907 2.071
323019.514 3075942.837 2.069
323019.544 3075942.762 2.058
323019.467 3075942.816 2.048
323019.482 3075942.793 2.046
323019.551 3075942.701 2.044
323019.453 3075942.813 2.042
323019.576 3075942.591 2.020
323019.558 3075942.612 2.020
323019.588 3075942.567 2.017
323019.576 3075942.580 2.017
323019.583 3075942.569 2.016
323019.492 3075942.657 2.009
323018.819 3075943.277 1.943
323018.828 3075943.254 1.938
323018.766 3075943.322 1.935
323018.832 3075943.238 1.933
323018.721 3075943.356 1.927
323018.835 3075943.220 1.927
323018.815 3075943.243 1.926
323018.822 3075943.231 1.925
323018.727 3075943.340 1.923
323018.728 3075943.337 1.922
323018.097 3075943.703 1.727
323018.695 3075942.970 1.720
323018.719 3075942.924 1.715
323018.624 3075943.033 1.714
323018.745 3075942.822 1.700
323018.637 3075942.764 1.676
323018.564 3075942.842 1.675
323018.556 3075942.848 1.675
323018.526 3075942.814 1.668
323018.500 3075942.832 1.667
323018.515 3075942.753 1.662
323018.479 3075942.780 1.661
323018.557 3075942.657 1.659
323018.478 3075942.736 1.658
323018.400 3075942.828 1.658
323018.475 3075942.730 1.657
323018.517 3075942.678 1.657
323018.548 3075942.600 1.655
323018.541 3075942.593 1.654
323018.571 3075942.556 1.654
323018.500 3075942.602 1.651
323018.295 3075942.807 1.649
323018.194 3075942.786 1.645
323018.106 3075942.729 1.646
323018.078 3075942.655 1.648
323018.051 3075942.548 1.654
323018.078 3075942.455 1.655
323017.996 3075942.379 1.651
323017.870 3075942.298 1.638
323017.696 3075942.241 1.618
323017.569 3075942.147 1.608
323017.509 3075942.043 1.609
323017.464 3075941.934 1.612
323017.535 3075941.844 1.612
323017.442 3075941.727 1.615
323017.331 3075941.626 1.613
323017.228 3075941.565 1.607
323017.143 3075941.481 1.601
323017.094 3075941.390 1.599
323017.052 3075941.272 1.599
323017.039 3075941.157 1.599
323016.968 3075941.048 1.595
323016.845 3075940.943 1.585
323016.722 3075940.876 1.574
323016.619 3075940.805 1.568
323016.537 3075940.712 1.565
323016.485 3075940.627 1.562
323016.482 3075940.520 1.558
323016.454 3075940.422 1.554
323016.348 3075940.342 1.546
323016.236 3075940.293 1.541
323016.151 3075940.230 1.539
323016.091 3075940.162 1.538
323016.045 3075940.069 1.537
323016.011 3075939.971 1.535
323015.896 3075939.856 1.522
323015.751 3075939.733 1.505
323015.623 3075939.680 1.497
323015.480 3075939.586 1.490
323015.385 3075939.495 1.487
323015.343 3075939.390 1.485
323015.288 3075939.288 1.481
323015.111 3075939.190 1.472
323014.943 3075939.153 1.465
323014.846 3075939.160 1.462
323014.733 3075939.091 1.457
323014.648 3075938.983 1.454
323014.591 3075938.885 1.452
323014.544 3075938.793 1.451
323014.424 3075938.729 1.452
323014.253 3075938.666 1.454
323014.080 3075938.628 1.457
323013.937 3075938.556 1.462
323013.833 3075938.451 1.467
323013.757 3075938.324 1.471
323013.681 3075938.215 1.474
323013.560 3075938.105 1.475
323013.408 3075938.011 1.472
323013.317 3075937.946 1.468
323013.204 3075937.817 1.456
323013.151 3075937.665 1.443
323013.118 3075937.496 1.433
323013.108 3075937.335 1.428
323013.027 3075937.170 1.423
323012.918 3075936.990 1.424
323012.771 3075936.852 1.429
323012.683 3075936.676 1.433
323012.642 3075936.506 1.434
323012.647 3075936.396 1.434
323012.582 3075936.206 1.437
323012.436 3075935.991 1.437
323012.272 3075935.837 1.434
323012.107 3075935.665 1.436
323011.995 3075935.504 1.429
323011.932 3075935.349 1.423
323011.918 3075935.218 1.423
323011.814 3075935.081 1.427
323011.666 3075934.965 1.430
323011.502 3075934.861 1.429
323011.353 3075934.744 1.430
323011.247 3075934.607 1.432
323011.163 3075934.448 1.431
323011.115 3075934.309 1.431
323010.991 3075934.158 1.427
323010.806 3075933.982 1.412
323010.635 3075933.882 1.410
323010.507 3075933.740 1.413
323010.397 3075933.596 1.415
323010.341 3075933.487 1.418
323010.228 3075933.344 1.426
323010.060 3075933.222 1.423
323009.886 3075933.088 1.411
323009.750 3075932.988 1.409
323009.630 3075932.862 1.408
323009.526 3075932.738 1.403
323009.508 3075932.625 1.399
323009.408 3075932.479 1.391
323009.269 3075932.339 1.379
323009.101 3075932.208 1.371
323008.932 3075932.090 1.377
323008.811 3075931.948 1.377
323008.722 3075931.797 1.368
323008.697 3075931.657 1.361
323008.590 3075931.493 1.346
323008.433 3075931.347 1.321
323008.280 3075931.236 1.302
323008.148 3075931.125 1.291
323008.034 3075931.000 1.281
323007.949 3075930.854 1.271
323007.875 3075930.715 1.264
323007.757 3075930.544 1.260
323007.590 3075930.399 1.244
323007.422 3075930.236 1.220
323007.263 3075930.097 1.216
323007.150 3075929.952 1.214
323007.069 3075929.782 1.207
323007.032 3075929.644 1.204
323006.905 3075929.474 1.200
323006.738 3075929.344 1.186
323006.562 3075929.209 1.165
323006.400 3075929.090 1.156
323006.283 3075928.958 1.150
323006.163 3075928.833 1.144
323006.100 3075928.708 1.141
323005.965 3075928.565 1.136
323005.785 3075928.449 1.112
323005.630 3075928.317 1.086
323005.484 3075928.218 1.075
323005.363 3075928.093 1.067
323005.254 3075927.953 1.057
323005.172 3075927.829 1.051
323005.068 3075927.696 1.048
323004.923 3075927.600 1.039
323004.774 3075927.454 1.021
323004.612 3075927.347 1.015
323004.474 3075927.216 1.012
323004.372 3075927.078 1.002
323004.283 3075926.947 0.993
323004.173 3075926.797 0.986
323004.010 3075926.669 0.974
323003.851 3075926.569 0.959
323003.684 3075926.475 0.952
323003.539 3075926.347 0.950
323003.409 3075926.200 0.943
323003.352 3075926.059 0.940
323003.251 3075925.918 0.938
323003.108 3075925.806 0.929
323002.934 3075925.659 0.909
323002.776 3075925.528 0.900
323002.655 3075925.371 0.893
323002.546 3075925.182 0.883
323002.463 3075925.029 0.884
323002.318 3075924.874 0.888
323002.141 3075924.723 0.876
323001.987 3075924.596 0.868
323001.850 3075924.449 0.861
323001.736 3075924.280 0.854
323001.691 3075924.161 0.851
323001.612 3075924.019 0.850
323001.486 3075923.890 0.843
323001.341 3075923.724 0.828
323001.186 3075923.591 0.826
323001.070 3075923.434 0.824
323000.981 3075923.246 0.820
323000.983 3075923.133 0.819
323000.890 3075922.960 0.819
323000.722 3075922.779 0.812
323000.558 3075922.653 0.803
323000.419 3075922.473 0.799
323000.338 3075922.288 0.797
323000.302 3075922.132 0.796
323000.248 3075921.976 0.799
323000.099 3075921.817 0.796
322999.943 3075921.612 0.766
322999.800 3075921.460 0.753
322999.689 3075921.297 0.745
322999.604 3075921.125 0.738
322999.544 3075920.980 0.738
322999.433 3075920.838 0.741
322999.284 3075920.722 0.733
322999.124 3075920.561 0.711
322998.985 3075920.419 0.701
322998.881 3075920.262 0.692
322998.799 3075920.090 0.682
322998.736 3075919.941 0.678
322998.639 3075919.781 0.678
322998.468 3075919.651 0.669
322998.316 3075919.536 0.654
322998.156 3075919.389 0.644
322998.018 3075919.205 0.634
322997.935 3075919.057 0.627
322997.804 3075918.876 0.626
322997.620 3075918.716 0.618
322997.461 3075918.561 0.599
322997.304 3075918.395 0.592
322997.190 3075918.218 0.581
322997.106 3075918.043 0.570
322997.007 3075917.856 0.567
322996.825 3075917.680 0.559
322996.649 3075917.508 0.529
322996.459 3075917.343 0.515
322996.314 3075917.152 0.511
322996.213 3075916.987 0.510
322996.107 3075916.797 0.515
322995.905 3075916.590 0.515
322995.738 3075916.434 0.515
322995.573 3075916.250 0.531
322995.427 3075916.058 0.537
322995.361 3075915.894 0.540
322995.273 3075915.723 0.550
322995.123 3075915.579 0.551
322994.949 3075915.406 0.534
322994.773 3075915.242 0.534
322994.668 3075915.066 0.536
322994.600 3075914.877 0.535
322994.513 3075914.703 0.539
322994.324 3075914.541 0.534
322994.139 3075914.369 0.512
322993.953 3075914.229 0.513
322993.794 3075914.062 0.518
322993.710 3075913.897 0.519
322993.612 3075913.731 0.523
322993.470 3075913.599 0.520
322993.307 3075913.427 0.505
322993.136 3075913.262 0.501
322993.022 3075913.099 0.493
322992.924 3075912.901 0.480
322992.864 3075912.730 0.477
322992.720 3075912.549 0.476
322992.537 3075912.370 0.455
322992.375 3075912.226 0.438
322992.213 3075912.047 0.432
322992.076 3075911.853 0.420
322991.998 3075911.692 0.412
322991.864 3075911.502 0.412
322991.653 3075911.348 0.400
322991.468 3075911.221 0.382
322991.284 3075911.067 0.381
322991.126 3075910.901 0.375
322991.028 3075910.749 0.364
322990.875 3075910.575 0.359
322990.687 3075910.443 0.351
322990.491 3075910.301 0.328
322990.296 3075910.172 0.320
322990.137 3075910.020 0.317
322990.012 3075909.854 0.308
322989.950 3075909.720 0.304
322989.827 3075909.556 0.300
322989.650 3075909.412 0.282
322989.482 3075909.260 0.254
322989.311 3075909.099 0.242
322989.198 3075908.951 0.233
322989.108 3075908.773 0.221
322989.050 3075908.603 0.215
322988.904 3075908.428 0.214
322988.731 3075908.272 0.194
322988.580 3075908.132 0.172
322988.440 3075907.992 0.158
322988.334 3075907.849 0.147
322988.256 3075907.692 0.137
322988.176 3075907.550 0.133
322988.058 3075907.416 0.129
322987.894 3075907.263 0.113
322987.733 3075907.131 0.102
322987.591 3075906.989 0.101
322987.484 3075906.831 0.098
322987.426 3075906.680 0.094
322987.311 3075906.505 0.091
322987.143 3075906.360 0.076
322987.001 3075906.212 0.061
322986.844 3075906.070 0.056
322986.723 3075905.911 0.052
322986.631 3075905.747 0.045
322986.529 3075905.588 0.045
322986.379 3075905.442 0.047
322986.186 3075905.289 0.035
322986.017 3075905.184 0.031
322985.857 3075905.039 0.030
322985.734 3075904.886 0.026
322985.687 3075904.768 0.025
322985.598 3075904.655 0.025
322985.470 3075904.573 0.024
322985.321 3075904.512 0.017
322985.166 3075904.449 0.009
322985.027 3075904.383 0.005
322984.925 3075904.279 0.004
322984.850 3075904.149 0.004
322984.847 3075904.034 0.003
322984.757 3075903.882 -0.001
322984.634 3075903.715 -0.013
322984.506 3075903.561 -0.025
322984.382 3075903.390 -0.032
322984.277 3075903.214 -0.040
322984.216 3075903.046 -0.044
322984.140 3075902.885 -0.044
322984.007 3075902.744 -0.049
322983.834 3075902.580 -0.069
322983.660 3075902.458 -0.078
322983.501 3075902.301 -0.083
322983.377 3075902.124 -0.092
322983.315 3075901.980 -0.095
322983.190 3075901.820 -0.098
322983.021 3075901.692 -0.111
322982.833 3075901.561 -0.128
322982.668 3075901.424 -0.135
322982.550 3075901.283 -0.143
322982.451 3075901.123 -0.154
322982.343 3075900.957 -0.157
322982.180 3075900.814 -0.162
322982.025 3075900.652 -0.174
322981.830 3075900.506 -0.174
322981.673 3075900.342 -0.176
322981.582 3075900.165 -0.183
322981.517 3075899.998 -0.186
322981.345 3075899.850 -0.191
322981.142 3075899.702 -0.209
322980.946 3075899.602 -0.217
322980.767 3075899.463 -0.223
322980.645 3075899.319 -0.236
322980.613 3075899.165 -0.244
322980.531 3075899.037 -0.251
322980.363 3075898.928 -0.264
322980.170 3075898.802 -0.288
322980.038 3075898.675 -0.302
322979.929 3075898.498 -0.314
322979.891 3075898.350 -0.322
322979.730 3075898.149 -0.334
322979.555 3075898.004 -0.335
322979.353 3075897.959 -0.328
322979.201 3075897.847 -0.322
322979.110 3075897.708 -0.326
322979.072 3075897.549 -0.333
322978.942 3075897.382 -0.343
322978.742 3075897.262 -0.350
322978.555 3075897.175 -0.363
322978.416 3075897.089 -0.377
322978.328 3075896.983 -0.389
322978.266 3075896.816 -0.401
322978.285 3075896.713 -0.405
322978.117 3075896.565 -0.421
322977.914 3075896.488 -0.442
322977.764 3075896.465 -0.455
322977.652 3075896.400 -0.461
322977.606 3075896.344 -0.463
322977.584 3075896.303 -0.464
322977.598 3075896.265 -0.464
322977.577 3075896.284 -0.464
322977.595 3075896.262 -0.464
322977.593 3075896.261 -0.464
