322830.829 3076109.420 2.152
322830.852 3076109.439 2.149
322830.885 3076109.386 2.159
322830.855 3076109.303 2.170
322830.771 3076109.066 2.123
322830.652 3076108.921 2.132
322830.591 3076108.802 2.145
322830.568 3076108.699 2.130
322830.561 3076108.614 2.119
322830.563 3076108.505 2.074
322830.602 3076108.431 2.063
322830.543 3076108.322 2.065
322830.392 3076108.174 2.020
322830.302 3076108.103 2.016
322830.257 3076107.999 2.028
322830.216 3076107.887 1.957
322830.247 3076107.794 1.945
322830.171 3076107.673 1.953
322830.081 3076107.521 1.884
322829.944 3076107.442 1.888
322829.879 3076107.303 1.879
322829.882 3076107.163 1.858
322829.850 3076107.006 1.862
322829.816 3076106.891 1.856
322829.758 3076106.796 1.843
322829.670 3076106.714 1.777
322829.575 3076106.723 1.794
322829.548 3076106.650 1.791
322829.489 3076106.533 1.770
322829.547 3076106.489 1.805
322829.527 3076106.367 1.779
322829.443 3076106.199 1.689
322829.331 3076106.069 1.685
322829.275 3076105.917 1.704
322829.281 3076105.771 1.651
322829.279 3076105.617 1.638
322829.283 3076105.478 1.659
322829.234 3076105.392 1.659
322829.162 3076105.350 1.665
322829.039 3076105.318 1.628
322828.964 3076105.315 1.639
322828.869 3076105.256 1.632
322828.826 3076105.176 1.634
322828.808 3076105.082 1.610
322828.828 3076105.032 1.622
322828.765 3076104.954 1.623
322828.663 3076104.870 1.567
322828.538 3076104.825 1.567
322828.473 3076104.739 1.578
322828.446 3076104.636 1.559
322828.499 3076104.567 1.488
322828.412 3076104.376 1.486
322828.270 3076104.214 1.497
322828.147 3076104.184 1.502
322828.028 3076104.082 1.508
322827.976 3076103.972 1.479
322827.918 3076103.808 1.452
322827.822 3076103.638 1.480
322827.679 3076103.513 1.479
322827.469 3076103.369 1.426
322827.287 3076103.256 1.463
322827.159 3076103.128 1.472
322827.008 3076103.011 1.430
322826.918 3076102.896 1.450
322826.775 3076102.797 1.455
322826.625 3076102.708 1.417
322826.418 3076102.649 1.406
322826.258 3076102.524 1.423
322826.165 3076102.369 1.401
322826.082 3076102.210 1.363
322825.996 3076102.061 1.396
322825.872 3076101.950 1.389
322825.689 3076101.815 1.321
322825.501 3076101.709 1.343
322825.366 3076101.563 1.354
322825.284 3076101.410 1.306
322825.227 3076101.256 1.292
322825.110 3076101.105 1.300
322824.964 3076100.997 1.301
322824.783 3076100.888 1.246
322824.608 3076100.789 1.281
322824.486 3076100.663 1.285
322824.402 3076100.503 1.220
322824.333 3076100.327 1.228
322824.193 3076100.177 1.234
322824.034 3076100.045 1.187
322823.848 3076099.942 1.176
322823.699 3076099.798 1.199
322823.602 3076099.639 1.180
322823.553 3076099.480 1.130
322823.440 3076099.291 1.148
322823.277 3076099.141 1.137
322823.080 3076099.007 1.078
322822.889 3076098.863 1.123
322822.770 3076098.705 1.100
322822.716 3076098.548 1.054
322822.596 3076098.372 1.068
322822.417 3076098.245 1.068
322822.271 3076098.155 0.993
322822.115 3076098.068 1.030
322822.004 3076097.939 1.021
322821.942 3076097.825 1.012
322821.899 3076097.698 0.966
322821.790 3076097.560 0.979
322821.643 3076097.460 0.975
322821.433 3076097.328 0.932
322821.266 3076097.239 0.953
322821.126 3076097.098 0.953
322821.019 3076096.948 0.937
322820.921 3076096.823 0.906
322820.783 3076096.665 0.933
322820.609 3076096.559 0.938
322820.438 3076096.452 0.884
322820.244 3076096.327 0.921
322820.109 3076096.167 0.910
322820.003 3076096.015 0.861
322819.873 3076095.866 0.894
322819.720 3076095.739 0.889
322819.546 3076095.602 0.862
322819.375 3076095.491 0.848
322819.216 3076095.336 0.853
322819.085 3076095.162 0.833
322819.013 3076095.034 0.825
322818.871 3076094.872 0.853
322818.709 3076094.743 0.853
322818.545 3076094.601 0.800
322818.363 3076094.451 0.825
322818.232 3076094.291 0.820
322818.152 3076094.148 0.767
322818.029 3076093.986 0.791
322817.868 3076093.838 0.807
322817.688 3076093.691 0.727
322817.495 3076093.550 0.741
322817.349 3076093.390 0.752
322817.224 3076093.219 0.723
322817.162 3076093.067 0.713
322817.021 3076092.886 0.729
322816.864 3076092.724 0.713
322816.710 3076092.589 0.665
322816.556 3076092.416 0.685
322816.416 3076092.228 0.669
322816.255 3076092.052 0.633
322816.084 3076091.882 0.658
322815.854 3076091.711 0.625
322815.656 3076091.590 0.621
322815.503 3076091.431 0.645
322815.369 3076091.244 0.607
322815.240 3076091.082 0.663
322815.042 3076090.937 0.686
322814.860 3076090.777 0.634
322814.682 3076090.642 0.679
322814.534 3076090.482 0.685
322814.415 3076090.333 0.650
322814.293 3076090.177 0.702
322814.152 3076090.061 0.718
322813.984 3076089.894 0.685
322813.827 3076089.786 0.695
322813.682 3076089.644 0.713
322813.592 3076089.509 0.711
322813.525 3076089.377 0.660
322813.432 3076089.223 0.684
322813.290 3076089.092 0.686
322813.118 3076088.963 0.626
322812.938 3076088.867 0.598
322812.775 3076088.710 0.608
322812.695 3076088.553 0.599
322812.609 3076088.419 0.545
322812.469 3076088.241 0.570
322812.311 3076088.108 0.548
322812.142 3076087.977 0.488
322811.961 3076087.851 0.510
322811.825 3076087.712 0.501
322811.719 3076087.581 0.484
322811.635 3076087.451 0.445
322811.491 3076087.293 0.461
322811.311 3076087.174 0.450
322811.148 3076087.055 0.393
322810.972 3076086.942 0.395
322810.829 3076086.798 0.391
322810.670 3076086.638 0.356
322810.542 3076086.514 0.346
322810.393 3076086.381 0.359
322810.194 3076086.258 0.350
322810.051 3076086.163 0.313
322809.881 3076086.027 0.331
322809.723 3076085.860 0.325
322809.598 3076085.728 0.284
322809.431 3076085.568 0.321
322809.244 3076085.443 0.320
322809.107 3076085.312 0.267
322808.939 3076085.168 0.300
322808.776 3076084.998 0.285
322808.660 3076084.843 0.243
322808.524 3076084.689 0.266
322808.370 3076084.567 0.273
322808.231 3076084.398 0.238
322808.073 3076084.264 0.241
322807.933 3076084.097 0.243
322807.799 3076083.912 0.229
322807.723 3076083.787 0.192
322807.582 3076083.622 0.227
322807.422 3076083.469 0.221
322807.290 3076083.326 0.178
322807.156 3076083.157 0.196
322807.038 3076082.989 0.182
322806.934 3076082.827 0.137
322806.812 3076082.658 0.161
322806.641 3076082.511 0.159
322806.494 3076082.358 0.134
322806.346 3076082.253 0.129
322806.191 3076082.088 0.136
322806.045 3076081.926 0.120
322805.934 3076081.792 0.100
322805.782 3076081.621 0.114
322805.608 3076081.452 0.100
322805.460 3076081.326 0.054
322805.301 3076081.167 0.078
322805.159 3076080.994 0.065
322805.053 3076080.843 0.022
322804.904 3076080.675 0.048
322804.739 3076080.540 0.046
322804.589 3076080.393 -0.015
322804.421 3076080.261 0.005
322804.244 3076080.087 0.012
322804.109 3076079.927 -0.043
322803.981 3076079.753 -0.003
322803.781 3076079.585 0.000
322803.582 3076079.444 -0.046
322803.360 3076079.256 -0.021
322803.172 3076079.053 -0.027
322803.091 3076078.898 -0.062
322802.930 3076078.723 -0.030
322802.783 3076078.576 -0.034
322802.625 3076078.452 -0.065
322802.467 3076078.307 -0.029
322802.331 3076078.139 -0.042
322802.243 3076077.957 -0.087
322802.146 3076077.788 -0.057
322802.017 3076077.637 -0.053
322801.870 3076077.477 -0.095
322801.715 3076077.368 -0.077
322801.580 3076077.201 -0.068
322801.458 3076077.021 -0.096
322801.399 3076076.862 -0.109
322801.269 3076076.693 -0.089
322801.122 3076076.573 -0.096
322800.937 3076076.450 -0.137
322800.752 3076076.323 -0.110
322800.620 3076076.165 -0.115
322800.558 3076075.980 -0.160
322800.459 3076075.797 -0.134
322800.313 3076075.655 -0.131
322800.134 3076075.495 -0.168
322799.963 3076075.363 -0.178
322799.831 3076075.223 -0.164
322799.743 3076075.075 -0.191
322799.700 3076074.915 -0.205
322799.589 3076074.761 -0.195
322799.468 3076074.661 -0.190
322799.303 3076074.517 -0.259
322799.112 3076074.379 -0.222
322798.985 3076074.209 -0.223
322798.886 3076074.017 -0.259
322798.841 3076073.858 -0.285
322798.739 3076073.679 -0.276
322798.589 3076073.553 -0.286
322798.433 3076073.432 -0.338
322798.278 3076073.319 -0.310
322798.163 3076073.160 -0.301
322798.111 3076072.993 -0.346
322798.024 3076072.839 -0.338
322797.897 3076072.708 -0.317
322797.713 3076072.588 -0.330
322797.519 3076072.509 -0.378
322797.374 3076072.453 -0.359
322797.285 3076072.335 -0.373
322797.277 3076072.199 -0.390
322797.243 3076072.076 -0.393
322797.147 3076071.980 -0.385
322797.025 3076071.926 -0.387
322796.899 3076071.905 -0.405
322796.778 3076071.893 -0.428
322796.688 3076071.870 -0.422
322796.639 3076071.838 -0.422
322796.639 3076071.811 -0.422
322796.658 3076071.792 -0.419
322796.668 3076071.775 -0.418
322796.673 3076071.767 -0.416
322796.670 3076071.758 -0.419
322796.663 3076071.749 -0.419
322796.636 3076071.729 -0.424
322796.632 3076071.753 -0.414
322796.601 3076071.773 -0.402
322796.589 3076071.780 -0.387
322796.594 3076071.765 -0.389
322796.747 3076071.588 -0.411
322796.758 3076071.503 -0.418
322796.739 3076071.461 -0.423
322796.713 3076071.451 -0.430
322796.692 3076071.452 -0.432
322796.661 3076071.447 -0.429
322796.630 3076071.438 -0.432
322796.620 3076071.442 -0.432
322796.611 3076071.444 -0.432
322796.602 3076071.452 -0.426
322796.597 3076071.462 -0.428
322796.601 3076071.474 -0.431
322796.603 3076071.480 -0.426
322796.606 3076071.485 -0.417
322796.606 3076071.490 -0.418
322796.609 3076071.496 -0.417
