323001.701 3075954.758 2.132
323001.705 3075954.752 2.130
323001.704 3075954.745 2.132
323001.692 3075954.723 2.125
323001.641 3075954.656 2.150
323001.591 3075954.573 2.152
323001.674 3075954.470 2.174
323001.675 3075954.450 2.176
323001.714 3075954.444 2.199
323001.667 3075954.430 2.204
323001.622 3075954.441 2.180
323001.511 3075954.456 2.169
323001.340 3075954.443 2.145
323001.202 3075954.465 2.085
323001.108 3075954.475 2.082
323001.097 3075954.538 2.004
323001.144 3075954.566 1.983
323001.202 3075954.471 1.973
323001.254 3075954.307 1.968
323001.201 3075954.138 1.972
323001.103 3075954.015 2.000
323001.013 3075953.917 2.011
323000.893 3075953.861 1.989
323000.765 3075953.816 1.936
323000.664 3075953.710 1.956
323000.622 3075953.603 1.946
323000.660 3075953.511 1.871
323000.632 3075953.396 1.887
323000.563 3075953.309 1.870
323000.449 3075953.259 1.837
323000.318 3075953.191 1.820
323000.189 3075953.093 1.849
323000.128 3075952.981 1.824
323000.132 3075952.871 1.751
323000.037 3075952.732 1.772
322999.909 3075952.628 1.743
322999.756 3075952.596 1.684
322999.598 3075952.476 1.703
322999.525 3075952.379 1.687
322999.538 3075952.268 1.598
322999.479 3075952.168 1.591
322999.368 3075952.068 1.581
322999.227 3075952.000 1.548
322999.083 3075951.915 1.575
322998.980 3075951.853 1.566
322998.940 3075951.755 1.552
322998.899 3075951.659 1.516
322998.799 3075951.552 1.538
322998.683 3075951.479 1.521
322998.543 3075951.424 1.480
322998.399 3075951.320 1.529
322998.290 3075951.236 1.524
322998.257 3075951.131 1.491
322998.220 3075951.022 1.486
322998.144 3075950.917 1.503
322998.029 3075950.840 1.479
322997.898 3075950.787 1.408
322997.761 3075950.691 1.453
322997.683 3075950.610 1.452
322997.636 3075950.487 1.407
322997.551 3075950.373 1.410
322997.442 3075950.257 1.430
322997.304 3075950.182 1.389
322997.174 3075950.108 1.376
322997.034 3075950.014 1.390
322996.936 3075949.919 1.386
322996.893 3075949.805 1.357
322996.824 3075949.682 1.352
322996.720 3075949.559 1.386
322996.599 3075949.467 1.372
322996.466 3075949.382 1.364
322996.337 3075949.280 1.382
322996.236 3075949.169 1.371
322996.206 3075949.059 1.349
322996.138 3075948.935 1.352
322996.083 3075948.832 1.374
322995.971 3075948.746 1.350
322995.841 3075948.678 1.338
322995.720 3075948.551 1.366
322995.632 3075948.450 1.371
322995.587 3075948.319 1.343
322995.519 3075948.217 1.363
322995.443 3075948.114 1.369
322995.318 3075948.032 1.354
322995.177 3075947.982 1.325
322995.058 3075947.894 1.360
322994.968 3075947.830 1.354
322994.898 3075947.715 1.346
322994.862 3075947.621 1.327
322994.761 3075947.505 1.347
322994.661 3075947.411 1.360
322994.528 3075947.344 1.328
322994.417 3075947.268 1.355
322994.275 3075947.183 1.351
322994.164 3075947.082 1.343
322994.126 3075946.982 1.311
322994.051 3075946.871 1.322
322993.971 3075946.771 1.343
322993.829 3075946.690 1.309
322993.709 3075946.605 1.331
322993.588 3075946.534 1.336
322993.517 3075946.446 1.336
322993.473 3075946.338 1.314
322993.451 3075946.236 1.287
322993.349 3075946.098 1.312
322993.212 3075945.945 1.317
322993.052 3075945.825 1.307
322992.899 3075945.718 1.324
322992.792 3075945.623 1.320
322992.716 3075945.496 1.296
322992.717 3075945.386 1.261
322992.601 3075945.214 1.278
322992.459 3075945.081 1.266
322992.289 3075944.986 1.231
322992.109 3075944.822 1.268
322991.974 3075944.682 1.237
322991.929 3075944.563 1.210
322991.799 3075944.395 1.238
322991.659 3075944.273 1.222
322991.503 3075944.178 1.200
322991.336 3075944.023 1.239
322991.183 3075943.890 1.225
322991.114 3075943.759 1.182
322990.993 3075943.601 1.202
322990.858 3075943.468 1.183
322990.684 3075943.369 1.146
322990.512 3075943.228 1.189
322990.371 3075943.115 1.171
322990.279 3075942.983 1.115
322990.165 3075942.835 1.136
322990.003 3075942.700 1.114
322989.818 3075942.587 1.077
322989.619 3075942.441 1.125
322989.439 3075942.306 1.113
322989.346 3075942.171 1.052
322989.223 3075942.023 1.082
322989.084 3075941.875 1.061
322988.904 3075941.738 1.023
322988.737 3075941.551 1.076
322988.607 3075941.402 1.043
322988.502 3075941.265 1.033
322988.395 3075941.097 1.033
322988.237 3075940.976 0.992
322988.077 3075940.890 0.994
322987.877 3075940.750 1.012
322987.767 3075940.623 0.982
322987.707 3075940.511 0.948
322987.556 3075940.368 0.967
322987.412 3075940.255 0.934
322987.277 3075940.131 0.949
322987.089 3075939.982 0.969
322986.967 3075939.833 0.938
322986.897 3075939.707 0.917
322986.767 3075939.515 0.932
322986.618 3075939.364 0.902
322986.456 3075939.239 0.909
322986.262 3075939.090 0.921
322986.135 3075938.929 0.878
322986.042 3075938.805 0.867
322985.878 3075938.621 0.868
322985.707 3075938.460 0.829
322985.570 3075938.312 0.863
322985.396 3075938.166 0.858
322985.265 3075938.012 0.820
322985.176 3075937.894 0.826
322985.051 3075937.736 0.835
322984.899 3075937.602 0.793
322984.756 3075937.465 0.837
322984.581 3075937.337 0.839
322984.446 3075937.209 0.799
322984.333 3075937.080 0.812
322984.200 3075936.916 0.823
322984.053 3075936.787 0.782
322983.914 3075936.656 0.810
322983.729 3075936.511 0.829
322983.581 3075936.341 0.795
322983.480 3075936.190 0.809
322983.351 3075936.013 0.813
322983.198 3075935.875 0.774
322983.062 3075935.766 0.758
322982.883 3075935.608 0.795
322982.743 3075935.466 0.768
322982.653 3075935.355 0.743
322982.492 3075935.190 0.756
322982.330 3075935.062 0.743
322982.169 3075934.962 0.724
322981.973 3075934.807 0.757
322981.836 3075934.674 0.722
322981.754 3075934.572 0.679
322981.602 3075934.395 0.706
322981.451 3075934.278 0.687
322981.287 3075934.178 0.652
322981.082 3075934.033 0.692
322980.959 3075933.910 0.672
322980.842 3075933.784 0.633
322980.694 3075933.633 0.667
322980.540 3075933.509 0.646
322980.389 3075933.415 0.643
322980.191 3075933.270 0.664
322980.034 3075933.135 0.644
322979.955 3075933.012 0.584
322979.807 3075932.831 0.604
322979.648 3075932.704 0.558
322979.466 3075932.578 0.545
322979.242 3075932.408 0.579
322979.079 3075932.256 0.538
322978.891 3075932.093 0.598
322978.747 3075931.936 0.601
322978.567 3075931.851 0.576
322978.389 3075931.761 0.624
322978.214 3075931.651 0.611
322978.091 3075931.509 0.594
322977.972 3075931.356 0.639
322977.813 3075931.221 0.641
322977.632 3075931.101 0.621
322977.467 3075930.977 0.662
322977.287 3075930.856 0.673
322977.151 3075930.703 0.636
322977.092 3075930.563 0.650
322976.942 3075930.384 0.670
322976.771 3075930.233 0.637
322976.613 3075930.133 0.603
322976.427 3075929.968 0.625
322976.300 3075929.829 0.594
322976.189 3075929.670 0.543
322976.030 3075929.497 0.585
322975.827 3075929.357 0.511
322975.635 3075929.214 0.526
322975.427 3075929.060 0.535
322975.310 3075928.872 0.483
322975.191 3075928.710 0.500
322975.048 3075928.559 0.482
322974.872 3075928.458 0.423
322974.691 3075928.313 0.473
322974.541 3075928.167 0.448
322974.467 3075928.030 0.393
322974.370 3075927.887 0.419
322974.229 3075927.745 0.400
322974.042 3075927.607 0.349
322973.857 3075927.439 0.397
322973.687 3075927.261 0.376
322973.577 3075927.099 0.338
322973.473 3075926.938 0.353
322973.315 3075926.801 0.295
322973.182 3075926.674 0.280
322973.004 3075926.532 0.313
322972.877 3075926.361 0.281
322972.787 3075926.236 0.282
322972.646 3075926.072 0.286
322972.483 3075925.942 0.250
322972.313 3075925.809 0.272
322972.117 3075925.666 0.272
322971.991 3075925.506 0.213
322971.892 3075925.357 0.223
322971.730 3075925.186 0.220
322971.540 3075925.057 0.162
322971.350 3075924.903 0.228
322971.162 3075924.767 0.214
322971.032 3075924.615 0.164
322970.911 3075924.487 0.174
322970.736 3075924.340 0.158
322970.548 3075924.212 0.101
322970.366 3075924.068 0.148
322970.196 3075923.925 0.130
322970.091 3075923.780 0.080
322969.978 3075923.651 0.107
322969.831 3075923.529 0.094
322969.643 3075923.406 0.055
322969.460 3075923.251 0.106
322969.292 3075923.120 0.091
322969.163 3075922.977 0.039
322969.027 3075922.833 0.063
322968.862 3075922.700 0.038
322968.693 3075922.586 -0.006
322968.482 3075922.426 0.043
322968.322 3075922.292 0.026
322968.236 3075922.169 -0.035
322968.081 3075922.003 -0.001
322967.936 3075921.879 -0.015
322967.797 3075921.788 -0.009
322967.647 3075921.651 0.009
322967.568 3075921.507 0.003
322967.536 3075921.373 -0.036
322967.477 3075921.214 -0.023
322967.406 3075921.064 -0.013
322967.304 3075920.919 -0.047
322967.200 3075920.785 -0.042
322967.120 3075920.647 -0.034
322967.091 3075920.525 -0.039
322967.124 3075920.432 -0.088
322967.124 3075920.312 -0.065
322967.083 3075920.178 -0.041
322966.996 3075920.096 -0.042
322966.867 3075920.005 -0.055
322966.778 3075919.913 -0.053
322966.722 3075919.824 -0.049
322966.792 3075919.667 -0.067
322966.828 3075919.610 -0.064
322966.832 3075919.563 -0.069
322966.851 3075919.578 -0.073
322966.860 3075919.587 -0.062
322966.860 3075919.611 -0.060
322966.855 3075919.623 -0.068
322966.850 3075919.621 -0.073
322966.850 3075919.619 -0.074
322966.855 3075919.627 -0.076
322966.855 3075919.634 -0.075
322966.853 3075919.640 -0.074
322966.843 3075919.617 -0.072
322966.838 3075919.592 -0.065
322966.830 3075919.549 -0.063
322966.814 3075919.500 -0.061
322966.769 3075919.414 -0.080
322966.708 3075919.336 -0.105
322966.657 3075919.226 -0.086
322966.632 3075919.116 -0.067
322966.667 3075919.015 -0.065
322966.743 3075918.941 -0.079
322966.764 3075918.825 -0.076
322966.758 3075918.710 -0.058
322966.708 3075918.596 -0.064
322966.626 3075918.499 -0.089
322966.569 3075918.369 -0.066
322966.534 3075918.244 -0.064
322966.569 3075918.136 -0.098
322966.593 3075918.024 -0.101
322966.580 3075917.893 -0.081
322966.524 3075917.785 -0.096
322966.418 3075917.700 -0.112
322966.330 3075917.604 -0.097
322966.265 3075917.514 -0.094
322966.248 3075917.401 -0.113
322966.284 3075917.311 -0.142
322966.246 3075917.176 -0.131
322966.175 3075917.038 -0.125
322966.089 3075916.922 -0.141
322965.990 3075916.817 -0.143
322965.903 3075916.678 -0.127
322965.864 3075916.557 -0.141
322965.903 3075916.463 -0.185
322965.895 3075916.332 -0.181
322965.850 3075916.194 -0.159
322965.756 3075916.099 -0.186
322965.647 3075915.980 -0.165
322965.566 3075915.867 -0.151
322965.542 3075915.749 -0.172
322965.567 3075915.654 -0.186
322965.537 3075915.525 -0.175
322965.473 3075915.408 -0.180
322965.381 3075915.317 -0.216
322965.262 3075915.198 -0.199
322965.161 3075915.090 -0.204
322965.114 3075914.956 -0.228
322965.115 3075914.842 -0.255
322965.057 3075914.683 -0.229
322964.968 3075914.558 -0.251
322964.861 3075914.462 -0.272
322964.733 3075914.324 -0.247
322964.637 3075914.188 -0.254
322964.631 3075914.080 -0.294
322964.592 3075913.932 -0.283
322964.519 3075913.807 -0.277
322964.406 3075913.737 -0.319
322964.259 3075913.629 -0.292
322964.171 3075913.555 -0.291
322964.141 3075913.460 -0.314
322964.160 3075913.394 -0.352
322964.101 3075913.270 -0.333
322964.026 3075913.173 -0.330
322963.905 3075913.096 -0.349
322963.803 3075913.011 -0.322
322963.711 3075912.932 -0.311
322963.643 3075912.854 -0.307
322963.619 3075912.771 -0.326
322963.643 3075912.690 -0.351
322963.583 3075912.607 -0.338
322963.514 3075912.542 -0.343
322963.429 3075912.492 -0.341
322963.334 3075912.451 -0.338
322963.248 3075912.415 -0.342
322963.147 3075912.361 -0.331
322963.059 3075912.289 -0.343
322963.016 3075912.206 -0.373
322962.981 3075912.131 -0.387
322962.923 3075912.057 -0.385
322962.817 3075912.027 -0.391
322962.679 3075912.013 -0.396
322962.564 3075911.989 -0.393
322962.479 3075911.979 -0.398
322962.428 3075911.965 -0.397
