322917.840 3076028.955 2.227
322917.840 3076028.956 2.223
322917.841 3076028.956 2.218
322917.842 3076028.955 2.214
322917.840 3076028.946 2.217
322917.832 3076028.933 2.222
322917.821 3076028.914 2.221
322917.796 3076028.889 2.229
322917.734 3076028.842 2.234
322917.637 3076028.788 2.227
322917.514 3076028.742 2.204
322917.432 3076028.681 2.241
322917.323 3076028.588 2.261
322917.244 3076028.479 2.260
322917.204 3076028.365 2.240
322917.149 3076028.242 2.257
322917.070 3076028.118 2.272
322916.959 3076028.008 2.259
322916.828 3076027.908 2.298
322916.712 3076027.811 2.324
322916.619 3076027.691 2.325
322916.563 3076027.541 2.323
322916.502 3076027.387 2.381
322916.441 3076027.274 2.414
322916.337 3076027.178 2.411
322916.175 3076027.139 2.419
322916.008 3076027.050 2.482
322915.906 3076026.962 2.502
322915.851 3076026.854 2.501
322915.816 3076026.720 2.526
322915.775 3076026.629 2.577
322915.748 3076026.594 2.595
322915.714 3076026.565 2.602
322915.625 3076026.582 2.590
322915.572 3076026.573 2.596
322915.531 3076026.565 2.598
322915.501 3076026.529 2.599
322915.507 3076026.478 2.595
322915.556 3076026.425 2.609
322915.555 3076026.383 2.616
322915.497 3076026.364 2.607
322915.444 3076026.347 2.603
322915.417 3076026.334 2.583
322915.412 3076026.284 2.571
322915.435 3076026.221 2.573
322915.477 3076026.204 2.571
322915.440 3076026.179 2.562
322915.393 3076026.164 2.533
322915.340 3076026.146 2.536
322915.308 3076026.149 2.530
322915.249 3076026.165 2.523
322915.162 3076026.177 2.508
322915.143 3076026.158 2.485
322915.161 3076026.106 2.470
322915.209 3076026.052 2.464
322915.203 3076026.038 2.406
322915.162 3076026.063 2.314
322915.130 3076026.120 2.244
322915.035 3076026.100 2.254
322915.000 3076026.099 2.257
322914.984 3076026.101 2.256
322914.956 3076026.086 2.230
322914.962 3076026.047 2.211
322914.973 3076025.996 2.188
322915.018 3076025.927 2.172
322915.022 3076025.848 2.168
322915.040 3076025.794 2.164
322915.009 3076025.761 2.138
322914.943 3076025.755 2.071
322914.895 3076025.730 2.051
322914.834 3076025.679 2.015
322914.827 3076025.613 2.021
322914.827 3076025.561 2.021
322914.803 3076025.518 2.003
322914.754 3076025.515 1.953
322914.686 3076025.492 1.951
322914.637 3076025.460 1.935
322914.604 3076025.393 1.886
322914.590 3076025.334 1.841
322914.549 3076025.273 1.850
322914.515 3076025.224 1.853
322914.469 3076025.182 1.840
322914.401 3076025.133 1.810
322914.334 3076025.067 1.780
322914.267 3076024.984 1.794
322914.234 3076024.889 1.782
322914.267 3076024.804 1.745
322914.257 3076024.700 1.745
322914.255 3076024.617 1.746
322914.205 3076024.541 1.729
322914.155 3076024.509 1.668
322914.092 3076024.458 1.665
322914.037 3076024.382 1.668
322914.027 3076024.303 1.648
322913.981 3076024.212 1.632
322913.909 3076024.129 1.632
322913.819 3076024.070 1.609
322913.728 3076024.032 1.576
322913.632 3076023.979 1.588
322913.540 3076023.928 1.580
322913.466 3076023.843 1.563
322913.411 3076023.753 1.528
322913.349 3076023.665 1.554
322913.286 3076023.607 1.552
322913.244 3076023.571 1.534
322913.173 3076023.542 1.514
322913.109 3076023.489 1.528
322913.067 3076023.479 1.529
322913.070 3076023.482 1.520
322913.089 3076023.476 1.510
322913.141 3076023.391 1.515
322913.176 3076023.236 1.515
322913.173 3076023.093 1.496
322913.183 3076023.003 1.497
322913.116 3076022.972 1.514
322913.018 3076022.996 1.516
322912.937 3076023.051 1.513
322912.804 3076023.088 1.540
322912.678 3076023.147 1.533
322912.584 3076023.126 1.530
322912.561 3076023.077 1.520
322912.534 3076022.997 1.526
322912.465 3076022.956 1.533
322912.356 3076022.964 1.520
322912.235 3076023.010 1.508
322912.084 3076023.017 1.513
322911.966 3076022.999 1.516
322911.885 3076022.942 1.506
322911.893 3076022.861 1.491
322911.904 3076022.771 1.494
322911.837 3076022.660 1.505
322911.742 3076022.556 1.505
322911.622 3076022.471 1.481
322911.506 3076022.386 1.479
322911.395 3076022.257 1.493
322911.323 3076022.120 1.485
322911.322 3076022.026 1.450
322911.260 3076021.901 1.461
322911.173 3076021.792 1.461
322911.041 3076021.717 1.410
322910.904 3076021.658 1.415
322910.751 3076021.545 1.420
322910.660 3076021.431 1.405
322910.625 3076021.339 1.355
322910.524 3076021.230 1.378
322910.390 3076021.143 1.354
322910.227 3076021.058 1.356
322910.044 3076020.948 1.382
322909.918 3076020.828 1.378
322909.881 3076020.708 1.335
322909.838 3076020.612 1.317
322909.737 3076020.488 1.321
322909.591 3076020.383 1.297
322909.433 3076020.265 1.316
322909.305 3076020.160 1.318
322909.233 3076020.041 1.294
322909.197 3076019.952 1.250
322909.097 3076019.796 1.274
322908.989 3076019.676 1.263
322908.857 3076019.604 1.232
322908.707 3076019.487 1.264
322908.598 3076019.374 1.254
322908.553 3076019.250 1.224
322908.495 3076019.129 1.219
322908.411 3076019.008 1.228
322908.296 3076018.912 1.207
322908.194 3076018.821 1.191
322908.068 3076018.704 1.205
322907.993 3076018.581 1.183
322907.996 3076018.486 1.139
322907.903 3076018.339 1.164
322907.809 3076018.221 1.158
322907.669 3076018.124 1.123
322907.532 3076017.990 1.161
322907.411 3076017.878 1.158
322907.333 3076017.742 1.124
322907.278 3076017.655 1.107
322907.172 3076017.509 1.114
322907.031 3076017.409 1.082
322906.918 3076017.325 1.081
322906.771 3076017.207 1.101
322906.699 3076017.113 1.090
322906.639 3076016.998 1.062
322906.572 3076016.890 1.063
322906.476 3076016.775 1.079
322906.328 3076016.683 1.047
322906.187 3076016.595 1.029
322906.059 3076016.475 1.046
322905.980 3076016.366 1.030
322905.943 3076016.258 0.984
322905.869 3076016.155 0.991
322905.784 3076016.038 1.006
322905.654 3076015.927 0.986
322905.539 3076015.823 0.978
322905.416 3076015.690 0.995
322905.327 3076015.564 0.976
322905.254 3076015.461 0.951
322905.168 3076015.332 0.959
322905.066 3076015.226 0.949
322904.931 3076015.137 0.913
322904.780 3076015.024 0.953
322904.662 3076014.927 0.948
322904.585 3076014.802 0.924
322904.519 3076014.690 0.924
322904.425 3076014.575 0.933
322904.296 3076014.481 0.909
322904.160 3076014.390 0.905
322904.010 3076014.276 0.921
322903.890 3076014.148 0.913
322903.848 3076014.017 0.871
322903.752 3076013.875 0.886
322903.655 3076013.740 0.886
322903.500 3076013.623 0.834
322903.365 3076013.483 0.876
322903.216 3076013.368 0.874
322903.129 3076013.225 0.836
322903.064 3076013.117 0.838
322902.956 3076012.970 0.864
322902.808 3076012.856 0.829
322902.678 3076012.742 0.814
322902.504 3076012.593 0.835
322902.373 3076012.456 0.818
322902.282 3076012.324 0.802
322902.163 3076012.160 0.825
322902.047 3076012.045 0.821
322901.902 3076011.948 0.790
322901.741 3076011.812 0.823
322901.586 3076011.692 0.819
322901.493 3076011.561 0.782
322901.415 3076011.442 0.785
322901.297 3076011.297 0.798
322901.136 3076011.178 0.751
322900.992 3076011.073 0.772
322900.837 3076010.960 0.773
322900.736 3076010.829 0.737
322900.681 3076010.706 0.715
322900.562 3076010.553 0.739
322900.421 3076010.442 0.697
322900.307 3076010.332 0.691
322900.134 3076010.188 0.715
322900.006 3076010.042 0.702
322899.917 3076009.908 0.671
322899.802 3076009.755 0.681
322899.673 3076009.614 0.662
322899.520 3076009.497 0.618
322899.352 3076009.326 0.649
322899.222 3076009.188 0.624
322899.111 3076009.046 0.574
322898.971 3076008.879 0.592
322898.822 3076008.734 0.572
322898.669 3076008.602 0.584
322898.484 3076008.437 0.615
322898.329 3076008.287 0.604
322898.250 3076008.163 0.600
322898.148 3076008.020 0.623
322898.018 3076007.891 0.616
322897.867 3076007.771 0.608
322897.691 3076007.635 0.662
322897.547 3076007.521 0.674
322897.444 3076007.383 0.651
322897.402 3076007.240 0.657
322897.285 3076007.084 0.680
322897.140 3076006.947 0.668
322896.987 3076006.837 0.651
322896.829 3076006.719 0.696
322896.703 3076006.621 0.698
322896.597 3076006.481 0.668
322896.558 3076006.370 0.684
322896.436 3076006.222 0.702
322896.300 3076006.088 0.695
322896.144 3076005.970 0.659
322895.998 3076005.819 0.688
322895.854 3076005.696 0.677
322895.741 3076005.554 0.601
322895.642 3076005.421 0.597
322895.518 3076005.282 0.574
322895.312 3076005.142 0.513
322895.110 3076004.988 0.553
322894.949 3076004.815 0.493
322894.862 3076004.677 0.451
322894.716 3076004.506 0.469
322894.550 3076004.381 0.383
322894.397 3076004.213 0.422
322894.249 3076004.060 0.407
322894.164 3076003.905 0.354
322894.072 3076003.754 0.374
322893.927 3076003.607 0.337
322893.779 3076003.479 0.307
322893.613 3076003.317 0.334
322893.501 3076003.147 0.294
322893.411 3076002.991 0.282
322893.307 3076002.816 0.291
322893.157 3076002.667 0.253
322893.016 3076002.503 0.258
322892.818 3076002.290 0.269
322892.691 3076002.097 0.217
322892.576 3076001.945 0.224
322892.437 3076001.759 0.219
322892.253 3076001.625 0.166
322892.077 3076001.480 0.206
322891.894 3076001.328 0.176
322891.756 3076001.176 0.134
322891.631 3076001.022 0.160
322891.457 3076000.888 0.119
322891.271 3076000.752 0.114
322891.049 3076000.589 0.146
322890.909 3076000.439 0.109
322890.789 3076000.309 0.087
322890.680 3076000.156 0.103
322890.518 3076000.030 0.065
322890.371 3075999.914 0.067
322890.185 3075999.785 0.080
322890.050 3075999.635 0.051
322889.942 3075999.506 0.043
322889.790 3075999.343 0.061
322889.609 3075999.208 0.021
322889.431 3075999.084 0.044
322889.208 3075998.943 0.054
322889.044 3075998.782 0.015
322888.947 3075998.661 0.008
322888.783 3075998.475 0.010
322888.603 3075998.333 -0.030
322888.467 3075998.209 -0.015
322888.284 3075998.063 -0.011
322888.159 3075997.907 -0.045
322888.080 3075997.802 -0.055
322887.946 3075997.644 -0.037
322887.790 3075997.521 -0.067
322887.642 3075997.412 -0.050
322887.454 3075997.277 -0.034
322887.312 3075997.136 -0.059
322887.232 3075997.043 -0.078
322887.111 3075996.903 -0.074
322886.963 3075996.778 -0.094
322886.823 3075996.670 -0.104
322886.654 3075996.531 -0.077
322886.521 3075996.415 -0.088
322886.418 3075996.299 -0.116
322886.305 3075996.169 -0.102
322886.170 3075996.038 -0.097
322886.020 3075995.933 -0.127
322885.858 3075995.814 -0.100
322885.690 3075995.710 -0.097
322885.595 3075995.577 -0.132
322885.523 3075995.461 -0.124
322885.423 3075995.331 -0.118
322885.279 3075995.224 -0.138
322885.144 3075995.162 -0.153
322884.998 3075995.051 -0.124
322884.900 3075994.959 -0.130
322884.840 3075994.848 -0.157
322884.813 3075994.720 -0.160
322884.672 3075994.603 -0.144
322884.506 3075994.507 -0.167
322884.341 3075994.419 -0.166
322884.183 3075994.292 -0.156
322884.088 3075994.175 -0.156
322884.061 3075994.044 -0.190
322884.056 3075993.916 -0.190
322884.004 3075993.759 -0.178
322883.911 3075993.619 -0.197
322883.807 3075993.493 -0.217
322883.695 3075993.322 -0.189
322883.612 3075993.184 -0.191
322883.589 3075993.056 -0.222
322883.583 3075992.936 -0.228
322883.551 3075992.792 -0.214
322883.473 3075992.656 -0.238
322883.385 3075992.530 -0.246
322883.270 3075992.371 -0.227
322883.187 3075992.219 -0.251
322883.172 3075992.096 -0.283
322883.118 3075991.915 -0.265
322883.039 3075991.779 -0.262
322882.918 3075991.690 -0.297
322882.785 3075991.564 -0.275
322882.669 3075991.468 -0.282
322882.584 3075991.343 -0.306
322882.542 3075991.225 -0.318
322882.440 3075991.079 -0.297
322882.335 3075990.973 -0.331
322882.211 3075990.880 -0.342
322882.045 3075990.748 -0.323
322881.931 3075990.611 -0.344
322881.923 3075990.483 -0.370
322881.870 3075990.310 -0.349
322881.785 3075990.163 -0.354
322881.684 3075990.049 -0.396
322881.545 3075989.892 -0.357
322881.439 3075989.759 -0.370
322881.417 3075989.641 -0.413
322881.385 3075989.512 -0.398
322881.346 3075989.394 -0.395
322881.241 3075989.302 -0.417
322881.127 3075989.219 -0.434
322881.026 3075989.103 -0.410
322880.981 3075988.994 -0.401
322880.982 3075988.885 -0.402
322881.075 3075988.820 -0.413
322881.106 3075988.739 -0.410
322881.074 3075988.654 -0.407
322880.973 3075988.584 -0.418
322880.851 3075988.519 -0.414
322880.774 3075988.447 -0.419
322880.781 3075988.377 -0.438
322880.833 3075988.338 -0.461
