323048.224 3075891.801 1.053
323048.075 3075891.918 1.096
323047.900 3075892.019 1.091
323047.714 3075892.074 1.068
323047.582 3075892.131 1.061
323047.399 3075892.243 1.091
323047.229 3075892.371 1.084
323047.099 3075892.475 1.058
323046.928 3075892.577 1.093
323046.765 3075892.626 1.082
323046.610 3075892.660 1.051
323046.438 3075892.710 1.083
323046.258 3075892.802 1.081
323046.079 3075892.883 1.034
323045.929 3075892.975 1.066
323045.751 3075893.045 1.065
323045.556 3075893.086 1.051
323045.419 3075893.116 1.036
323045.231 3075893.197 1.060
323045.064 3075893.322 1.053
323044.899 3075893.432 1.003
323044.755 3075893.549 1.057
323044.574 3075893.638 1.048
323044.390 3075893.747 1.001
323044.224 3075893.831 1.045
323044.063 3075893.958 1.045
323043.876 3075894.087 1.014
323043.725 3075894.224 1.042
323043.554 3075894.334 1.044
323043.359 3075894.452 1.008
323043.206 3075894.523 1.042
323043.035 3075894.664 1.048
323042.853 3075894.824 1.026
323042.741 3075894.953 1.064
323042.572 3075895.071 1.058
323042.388 3075895.187 1.031
323042.222 3075895.282 1.029
323042.050 3075895.411 1.035
323041.861 3075895.566 1.002
323041.746 3075895.677 1.016
323041.571 3075895.801 1.044
323041.370 3075895.871 1.046
323041.222 3075895.919 0.997
323041.039 3075895.991 1.046
323040.861 3075896.100 1.039
323040.677 3075896.192 1.007
323040.492 3075896.315 1.028
323040.292 3075896.386 1.029
323040.072 3075896.426 1.017
323039.927 3075896.448 0.995
323039.721 3075896.531 1.030
323039.542 3075896.630 1.016
323039.386 3075896.724 0.998
323039.195 3075896.844 1.030
323038.982 3075896.931 1.006
323038.822 3075896.995 0.982
323038.653 3075897.053 1.010
323038.493 3075897.151 1.017
323038.297 3075897.272 0.973
323038.130 3075897.398 0.994
323037.930 3075897.508 0.982
323037.726 3075897.601 0.962
323037.560 3075897.650 0.984
323037.358 3075897.787 1.001
323037.164 3075897.944 0.968
323037.002 3075898.061 0.976
323036.840 3075898.199 0.992
323036.650 3075898.333 0.948
323036.495 3075898.422 0.966
323036.323 3075898.559 0.981
323036.129 3075898.721 0.938
323035.990 3075898.858 0.969
323035.815 3075898.984 0.994
323035.611 3075899.107 0.948
323035.445 3075899.189 0.977
323035.277 3075899.331 0.991
323035.080 3075899.494 0.955
323034.940 3075899.623 0.970
323034.774 3075899.754 0.995
323034.571 3075899.878 0.994
323034.411 3075899.980 0.975
323034.222 3075900.100 1.005
323034.049 3075900.254 0.982
323033.919 3075900.370 0.961
323033.757 3075900.516 0.991
323033.555 3075900.646 0.977
323033.420 3075900.728 0.958
323033.237 3075900.850 0.961
323033.074 3075901.027 0.962
323032.941 3075901.178 0.935
323032.781 3075901.329 0.979
323032.592 3075901.459 0.969
323032.450 3075901.533 0.947
323032.275 3075901.668 0.973
323032.111 3075901.835 0.978
323031.960 3075901.978 0.942
323031.803 3075902.136 0.984
323031.640 3075902.255 0.983
323031.477 3075902.375 0.957
323031.323 3075902.480 0.993
323031.171 3075902.621 0.997
323030.993 3075902.787 0.970
323030.872 3075902.939 0.977
323030.704 3075903.082 0.987
323030.496 3075903.228 0.958
323030.377 3075903.299 0.983
323030.209 3075903.439 0.991
323030.060 3075903.609 0.978
323029.941 3075903.748 0.957
323029.796 3075903.906 0.987
323029.617 3075904.027 0.973
323029.480 3075904.128 0.960
323029.304 3075904.254 0.990
323029.160 3075904.417 0.984
323029.029 3075904.544 0.964
323028.882 3075904.699 0.987
323028.717 3075904.827 0.983
323028.557 3075904.941 0.947
323028.394 3075905.058 0.966
323028.247 3075905.233 0.984
323028.094 3075905.417 0.921
323027.948 3075905.608 0.972
323027.783 3075905.768 0.968
323027.630 3075905.904 0.944
323027.477 3075906.026 1.000
323027.335 3075906.197 0.996
323027.172 3075906.360 0.964
323027.044 3075906.522 0.986
323026.884 3075906.656 1.009
323026.715 3075906.798 0.964
323026.560 3075906.909 0.994
323026.410 3075907.080 1.009
323026.244 3075907.249 0.959
323026.135 3075907.397 0.990
323025.978 3075907.542 1.002
323025.774 3075907.695 0.978
323025.641 3075907.780 0.967
323025.475 3075907.912 1.003
323025.320 3075908.062 0.978
323025.196 3075908.195 0.961
323025.025 3075908.350 1.000
323024.826 3075908.442 1.000
323024.684 3075908.539 0.955
323024.499 3075908.639 0.995
323024.347 3075908.795 0.992
323024.195 3075908.936 0.946
323024.057 3075909.080 0.978
323023.892 3075909.201 0.978
323023.716 3075909.312 0.957
323023.561 3075909.411 0.984
323023.395 3075909.561 0.993
323023.218 3075909.719 0.962
323023.088 3075909.839 0.989
323022.929 3075909.978 0.994
323022.730 3075910.087 0.961
323022.599 3075910.175 0.957
323022.417 3075910.294 0.980
323022.234 3075910.462 0.965
323022.086 3075910.595 0.963
323021.916 3075910.740 0.985
323021.716 3075910.862 0.975
323021.589 3075910.911 0.961
323021.398 3075911.026 1.005
323021.243 3075911.194 1.005
323021.098 3075911.339 0.961
323020.941 3075911.495 0.997
323020.765 3075911.618 0.985
323020.605 3075911.715 0.960
323020.429 3075911.810 0.977
323020.273 3075911.969 0.997
323020.100 3075912.110 0.967
323019.963 3075912.251 1.004
323019.797 3075912.367 1.014
323019.610 3075912.495 0.981
323019.450 3075912.579 1.006
323019.278 3075912.747 1.018
323019.093 3075912.925 0.972
323018.946 3075913.096 0.991
323018.778 3075913.225 1.004
323018.604 3075913.347 0.965
323018.433 3075913.473 0.998
323018.277 3075913.661 1.009
323018.108 3075913.859 0.957
323017.953 3075914.050 1.012
323017.792 3075914.189 1.014
323017.619 3075914.311 0.971
323017.458 3075914.428 1.000
323017.305 3075914.602 1.015
323017.127 3075914.770 0.975
323016.977 3075914.928 1.005
323016.814 3075915.068 1.014
323016.627 3075915.207 0.975
323016.471 3075915.328 0.993
323016.317 3075915.486 1.013
323016.133 3075915.673 0.974
323016.013 3075915.829 0.988
323015.856 3075915.968 0.995
323015.656 3075916.113 0.963
323015.511 3075916.182 0.988
323015.354 3075916.324 1.007
323015.162 3075916.492 0.984
323015.024 3075916.651 0.985
323014.867 3075916.811 1.010
323014.672 3075916.959 0.974
323014.537 3075917.061 0.975
323014.376 3075917.217 0.993
323014.214 3075917.415 0.978
323014.093 3075917.573 0.977
323013.946 3075917.736 1.007
323013.776 3075917.866 0.993
323013.645 3075917.950 0.974
323013.472 3075918.094 1.010
323013.316 3075918.282 0.991
323013.200 3075918.419 0.973
323013.049 3075918.586 1.017
323012.863 3075918.749 0.995
323012.751 3075918.823 0.981
323012.581 3075918.956 0.994
323012.433 3075919.129 0.989
323012.287 3075919.264 0.959
323012.141 3075919.411 0.995
323011.988 3075919.507 0.995
323011.819 3075919.644 0.945
323011.654 3075919.763 0.982
323011.506 3075919.901 0.989
323011.338 3075920.034 0.951
323011.190 3075920.180 0.987
323011.014 3075920.286 0.989
323010.836 3075920.406 0.956
323010.663 3075920.515 0.999
323010.517 3075920.691 1.015
323010.347 3075920.860 0.967
323010.202 3075921.020 0.996
323010.060 3075921.169 0.991
323009.892 3075921.321 0.963
323009.747 3075921.430 0.991
323009.609 3075921.574 1.009
323009.450 3075921.765 0.989
323009.336 3075921.915 0.978
323009.184 3075922.068 1.013
323008.993 3075922.184 0.997
323008.848 3075922.289 0.976
323008.661 3075922.428 1.007
323008.505 3075922.592 1.010
323008.358 3075922.726 0.967
323008.196 3075922.869 1.000
323007.994 3075922.979 0.994
323007.854 3075923.041 0.965
323007.674 3075923.161 0.985
323007.505 3075923.331 0.979
323007.336 3075923.466 0.938
323007.158 3075923.607 0.971
323006.969 3075923.706 0.986
323006.811 3075923.797 0.941
323006.628 3075923.906 0.980
323006.459 3075924.064 0.980
323006.287 3075924.204 0.934
323006.115 3075924.376 0.973
323005.934 3075924.499 0.966
323005.764 3075924.589 0.943
323005.593 3075924.692 0.972
323005.431 3075924.856 0.973
323005.253 3075925.021 0.927
323005.114 3075925.176 0.966
323004.947 3075925.316 0.973
323004.784 3075925.448 0.947
323004.636 3075925.570 0.969
323004.506 3075925.744 0.971
323004.341 3075925.917 0.935
323004.200 3075926.063 0.954
323004.052 3075926.194 0.960
323003.889 3075926.331 0.922
323003.739 3075926.446 0.949
323003.583 3075926.613 0.959
323003.396 3075926.777 0.927
323003.269 3075926.926 0.945
323003.106 3075927.075 0.965
323002.913 3075927.230 0.948
323002.785 3075927.330 0.960
323002.621 3075927.488 0.988
323002.452 3075927.683 0.948
323002.336 3075927.838 0.953
323002.191 3075927.998 0.984
323002.008 3075928.148 0.947
323001.864 3075928.268 0.964
323001.697 3075928.433 0.998
323001.530 3075928.612 0.966
323001.409 3075928.758 0.960
323001.255 3075928.906 0.982
323001.060 3075929.051 0.972
323000.932 3075929.122 0.958
323000.757 3075929.265 0.988
323000.592 3075929.413 0.978
323000.457 3075929.539 0.950
323000.289 3075929.684 0.967
323000.110 3075929.799 0.963
322999.970 3075929.879 0.933
322999.822 3075929.993 0.965
322999.664 3075930.128 0.969
322999.477 3075930.263 0.922
322999.314 3075930.416 0.950
322999.143 3075930.528 0.950
322998.963 3075930.644 0.923
322998.804 3075930.766 0.963
322998.634 3075930.916 0.971
322998.443 3075931.093 0.919
322998.283 3075931.253 0.943
322998.123 3075931.378 0.965
322997.939 3075931.506 0.930
322997.770 3075931.628 0.963
322997.627 3075931.802 0.962
322997.442 3075932.002 0.920
322997.299 3075932.180 0.946
322997.136 3075932.334 0.957
322996.969 3075932.464 0.934
322996.809 3075932.603 0.968
322996.667 3075932.772 0.968
322996.502 3075932.937 0.928
322996.364 3075933.091 0.965
322996.191 3075933.233 0.975
322995.994 3075933.375 0.937
322995.820 3075933.489 0.975
322995.662 3075933.668 0.986
322995.492 3075933.829 0.952
322995.356 3075933.979 0.985
322995.197 3075934.125 0.993
322995.015 3075934.261 0.954
322994.843 3075934.381 0.985
322994.683 3075934.535 0.990
322994.507 3075934.682 0.956
322994.384 3075934.825 0.973
322994.218 3075934.943 0.972
322994.019 3075935.052 0.940
322993.859 3075935.128 0.965
322993.681 3075935.252 0.965
322993.492 3075935.380 0.926
322993.332 3075935.534 0.943
322993.130 3075935.644 0.953
322992.935 3075935.751 0.919
322992.766 3075935.844 0.955
322992.593 3075935.982 0.966
322992.411 3075936.118 0.932
322992.276 3075936.247 0.949
322992.101 3075936.373 0.967
322991.886 3075936.486 0.935
322991.728 3075936.572 0.946
322991.549 3075936.707 0.966
322991.362 3075936.869 0.938
322991.232 3075937.011 0.934
322991.050 3075937.163 0.959
322990.846 3075937.327 0.935
322990.733 3075937.383 0.936
322990.574 3075937.507 0.954
322990.428 3075937.633 0.951
322990.313 3075937.734 0.934
322990.197 3075937.832 0.979
322990.056 3075937.885 0.978
322989.872 3075937.956 0.958
322989.715 3075938.019 0.972
322989.522 3075938.124 0.974
322989.316 3075938.226 0.930
322989.148 3075938.348 0.957
322988.963 3075938.443 0.951
322988.754 3075938.536 0.921
322988.609 3075938.574 0.954
322988.429 3075938.679 0.964
322988.253 3075938.778 0.945
322988.115 3075938.888 0.941
322987.915 3075938.995 0.970
322987.695 3075939.070 0.953
322987.553 3075939.078 0.937
322987.340 3075939.141 0.968
322987.116 3075939.266 0.945
322986.946 3075939.357 0.927
322986.729 3075939.453 0.950
322986.510 3075939.486 0.945
322986.347 3075939.521 0.919
322986.152 3075939.574 0.955
322985.967 3075939.642 0.947
322985.793 3075939.676 0.905
322985.593 3075939.715 0.932
322985.418 3075939.699 0.927
322985.205 3075939.701 0.883
322985.020 3075939.687 0.916
322984.806 3075939.741 0.922
322984.558 3075939.803 0.882
322984.338 3075939.906 0.906
322984.104 3075939.985 0.921
322983.877 3075940.046 0.902
322983.734 3075940.054 0.899
322983.564 3075940.137 0.928
322983.404 3075940.312 0.912
322983.286 3075940.482 0.887
322983.146 3075940.658 0.924
322982.969 3075940.797 0.916
322982.847 3075940.913 0.894
322982.684 3075941.069 0.919
322982.531 3075941.272 0.910
322982.416 3075941.407 0.881
322982.282 3075941.568 0.922
322982.131 3075941.702 0.914
322982.012 3075941.820 0.895
322981.865 3075941.952 0.930
322981.723 3075942.158 0.935
322981.591 3075942.316 0.904
322981.459 3075942.478 0.949
322981.305 3075942.623 0.949
322981.164 3075942.738 0.919
322981.013 3075942.860 0.953
322980.864 3075943.034 0.957
322980.724 3075943.165 0.925
322980.576 3075943.333 0.957
322980.398 3075943.486 0.944
322980.251 3075943.628 0.910
322980.088 3075943.763 0.946
322979.951 3075943.948 0.955
322979.825 3075944.097 0.923
322979.691 3075944.269 0.971
322979.528 3075944.387 0.976
322979.382 3075944.485 0.929
322979.211 3075944.596 0.956
322979.048 3075944.731 0.943
322978.928 3075944.816 0.933
322978.768 3075944.904 0.963
322978.598 3075944.903 0.954
322978.455 3075944.848 0.925
322978.311 3075944.821 0.945
322978.138 3075944.822 0.943
322977.926 3075944.821 0.901
322977.723 3075944.877 0.918
322977.497 3075944.926 0.920
322977.258 3075945.011 0.894
322977.092 3075945.046 0.920
322976.917 3075945.158 0.938
322976.749 3075945.346 0.917
322976.604 3075945.522 0.911
322976.445 3075945.679 0.939
322976.245 3075945.810 0.910
322976.116 3075945.902 0.930
322975.950 3075946.058 0.955
322975.789 3075946.242 0.927
322975.683 3075946.409 0.935
322975.533 3075946.577 0.957
322975.344 3075946.734 0.935
322975.211 3075946.798 0.933
322975.037 3075946.942 0.955
322974.875 3075947.157 0.936
322974.778 3075947.333 0.941
322974.646 3075947.522 0.969
322974.449 3075947.689 0.948
322974.314 3075947.796 0.932
322974.148 3075947.955 0.952
322973.998 3075948.157 0.932
322973.896 3075948.317 0.928
322973.753 3075948.491 0.950
322973.562 3075948.662 0.933
322973.443 3075948.750 0.941
322973.295 3075948.921 0.959
322973.132 3075949.109 0.948
322973.003 3075949.276 0.946
322972.842 3075949.452 0.967
322972.653 3075949.615 0.932
322972.530 3075949.732 0.947
322972.387 3075949.906 0.958
322972.212 3075950.119 0.939
322972.108 3075950.281 0.944
322971.965 3075950.445 0.967
322971.785 3075950.604 0.958
322971.650 3075950.714 0.945
322971.508 3075950.882 0.972
322971.357 3075951.081 0.951
322971.259 3075951.239 0.957
322971.124 3075951.411 0.986
322970.955 3075951.555 0.971
322970.836 3075951.638 0.959
322970.669 3075951.796 0.991
322970.520 3075951.995 0.976
322970.400 3075952.150 0.953
322970.271 3075952.305 0.990
322970.131 3075952.392 0.984
322969.988 3075952.497 0.942
322969.817 3075952.611 0.974
322969.656 3075952.777 0.965
322969.497 3075952.901 0.935
322969.323 3075953.056 0.963
322969.119 3075953.190 0.960
322968.969 3075953.272 0.932
322968.781 3075953.406 0.962
322968.611 3075953.596 0.954
322968.478 3075953.761 0.920
322968.334 3075953.937 0.951
322968.176 3075954.097 0.949
322968.054 3075954.206 0.926
322967.888 3075954.348 0.951
322967.757 3075954.543 0.941
322967.629 3075954.728 0.906
322967.501 3075954.895 0.943
322967.342 3075955.035 0.948
322967.206 3075955.143 0.920
322967.057 3075955.301 0.958
322966.921 3075955.474 0.962
322966.785 3075955.613 0.929
322966.661 3075955.784 0.969
322966.488 3075955.918 0.972
322966.326 3075956.056 0.945
322966.164 3075956.186 0.974
322966.015 3075956.358 0.982
322965.847 3075956.538 0.930
322965.718 3075956.718 0.956
322965.553 3075956.871 0.963
322965.400 3075957.005 0.925
322965.259 3075957.132 0.964
322965.127 3075957.306 0.972
322964.973 3075957.485 0.924
322964.830 3075957.670 0.956
322964.659 3075957.822 0.956
322964.515 3075957.964 0.926
322964.332 3075958.134 0.953
322964.170 3075958.343 0.963
322964.046 3075958.508 0.924
322963.895 3075958.701 0.963
322963.713 3075958.864 0.955
322963.587 3075959.003 0.932
322963.432 3075959.150 0.966
322963.302 3075959.332 0.964
322963.155 3075959.492 0.913
322962.999 3075959.698 0.949
322962.823 3075959.877 0.953
322962.710 3075959.980 0.936
322962.546 3075960.126 0.964
322962.407 3075960.323 0.975
322962.268 3075960.485 0.927
322962.120 3075960.657 0.952
322961.942 3075960.765 0.949
322961.797 3075960.851 0.924
322961.624 3075960.966 0.970
322961.434 3075961.164 0.962
322961.285 3075961.308 0.921
322961.116 3075961.475 0.952
322960.922 3075961.661 0.941
322960.808 3075961.720 0.941
322960.642 3075961.860 0.970
322960.508 3075962.061 0.971
322960.398 3075962.226 0.924
322960.243 3075962.434 0.958
322960.071 3075962.627 0.953
322959.945 3075962.685 0.942
322959.769 3075962.815 0.970
322959.596 3075962.989 0.961
322959.483 3075963.148 0.951
322959.323 3075963.320 0.978
322959.139 3075963.475 0.959
322958.980 3075963.554 0.935
322958.807 3075963.686 0.966
322958.661 3075963.870 0.951
322958.568 3075964.021 0.935
322958.425 3075964.184 0.969
322958.229 3075964.317 0.959
322958.089 3075964.405 0.941
322957.916 3075964.542 0.977
322957.759 3075964.723 0.968
322957.634 3075964.882 0.939
322957.465 3075965.077 0.962
322957.267 3075965.238 0.946
322957.135 3075965.316 0.946
322956.978 3075965.451 0.985
322956.864 3075965.609 0.980
322956.733 3075965.749 0.939
322956.590 3075965.925 0.972
322956.391 3075966.092 0.963
322956.252 3075966.185 0.938
322956.094 3075966.318 0.978
322955.979 3075966.471 0.981
322955.834 3075966.620 0.922
322955.706 3075966.788 0.966
322955.524 3075966.947 0.967
322955.380 3075967.078 0.938
322955.219 3075967.233 0.976
322955.109 3075967.404 0.981
322954.956 3075967.574 0.920
322954.820 3075967.749 0.938
322954.653 3075967.906 0.940
322954.527 3075968.030 0.909
322954.386 3075968.169 0.952
322954.252 3075968.350 0.957
322954.123 3075968.523 0.922
322954.006 3075968.694 0.969
322953.864 3075968.834 0.969
322953.711 3075968.966 0.934
322953.564 3075969.081 0.951
322953.415 3075969.254 0.959
322953.250 3075969.433 0.919
322953.126 3075969.628 0.957
322952.952 3075969.767 0.957
322952.779 3075969.904 0.922
322952.621 3075970.037 0.954
322952.459 3075970.232 0.963
322952.297 3075970.397 0.906
322952.157 3075970.564 0.956
322951.988 3075970.726 0.956
322951.833 3075970.856 0.907
322951.665 3075970.991 0.948
322951.512 3075971.195 0.953
322951.375 3075971.363 0.911
322951.249 3075971.540 0.956
322951.059 3075971.718 0.953
322950.909 3075971.856 0.911
322950.728 3075972.013 0.943
322950.582 3075972.240 0.951
322950.444 3075972.415 0.886
322950.304 3075972.596 0.925
322950.092 3075972.746 0.929
322949.950 3075972.852 0.893
322949.765 3075973.003 0.932
322949.578 3075973.212 0.922
322949.448 3075973.372 0.889
322949.287 3075973.547 0.922
322949.074 3075973.712 0.909
322948.931 3075973.823 0.901
322948.755 3075973.999 0.934
322948.571 3075974.242 0.887
322948.446 3075974.443 0.873
322948.306 3075974.618 0.902
322948.165 3075974.789 0.878
322948.042 3075974.909 0.903
322947.925 3075975.103 0.930
322947.773 3075975.334 0.878
322947.644 3075975.548 0.913
322947.503 3075975.740 0.937
322947.330 3075975.874 0.884
322947.168 3075976.020 0.913
322947.030 3075976.206 0.926
322946.876 3075976.413 0.874
322946.759 3075976.601 0.916
322946.600 3075976.740 0.921
322946.454 3075976.887 0.896
322946.289 3075977.015 0.922
322946.163 3075977.213 0.939
322946.075 3075977.430 0.893
322945.998 3075977.621 0.933
322945.865 3075977.763 0.936
322945.720 3075977.924 0.892
322945.584 3075978.054 0.921
322945.475 3075978.222 0.918
322945.408 3075978.363 0.918
322945.377 3075978.475 0.929
322945.334 3075978.542 0.951
322945.261 3075978.606 0.944
322945.181 3075978.615 0.935
322945.120 3075978.600 0.931
322945.079 3075978.581 0.918
322945.052 3075978.579 0.906
322945.042 3075978.592 0.904
322945.036 3075978.600 0.902
322945.028 3075978.584 0.896
322945.028 3075978.579 0.897
322945.025 3075978.572 0.896
322945.027 3075978.570 0.896
322945.026 3075978.569 0.895
322945.023 3075978.569 0.891
322945.020 3075978.579 0.893
322945.020 3075978.589 0.898
322945.014 3075978.591 0.901
322945.014 3075978.583 0.904
322945.009 3075978.573 0.905
322945.013 3075978.566 0.910
322945.016 3075978.567 0.912
322945.022 3075978.576 0.913
322945.022 3075978.594 0.916
322945.032 3075978.606 0.920
322945.047 3075978.600 0.923
322945.058 3075978.591 0.921
322945.069 3075978.596 0.923
322945.077 3075978.599 0.924
322945.073 3075978.590 0.918
322945.076 3075978.574 0.918
322945.081 3075978.575 0.923
322945.085 3075978.605 0.936
322945.078 3075978.644 0.935
322945.065 3075978.655 0.936
322945.056 3075978.647 0.934
322945.058 3075978.639 0.934
322945.057 3075978.648 0.938
322945.063 3075978.671 0.935
322945.070 3075978.692 0.935
322945.077 3075978.707 0.938
322945.087 3075978.715 0.943
322945.091 3075978.724 0.942
322945.099 3075978.727 0.941
322945.100 3075978.732 0.944
322945.094 3075978.736 0.939
322945.091 3075978.739 0.941
322945.092 3075978.751 0.939
322945.095 3075978.758 0.941
322945.082 3075978.768 0.935
322945.067 3075978.781 0.937
322945.048 3075978.794 0.931
322945.038 3075978.796 0.927
322945.030 3075978.785 0.935
322945.020 3075978.776 0.932
322945.015 3075978.768 0.936
322945.011 3075978.772 0.937
322945.015 3075978.777 0.935
322945.025 3075978.773 0.928
322945.031 3075978.766 0.923
322945.047 3075978.755 0.925
322945.062 3075978.735 0.932
322945.076 3075978.716 0.930
322945.090 3075978.699 0.931
322945.095 3075978.685 0.932
322945.098 3075978.672 0.939
322945.090 3075978.661 0.940
322945.087 3075978.662 0.940
322945.083 3075978.669 0.943
322945.077 3075978.679 0.935
322945.076 3075978.692 0.941
322945.085 3075978.707 0.948
322945.095 3075978.715 0.953
322945.100 3075978.710 0.958
322945.086 3075978.701 0.961
322945.061 3075978.680 0.960
322945.018 3075978.675 0.951
322944.983 3075978.670 0.948
322944.977 3075978.698 0.951
322944.938 3075978.842 0.934
322944.911 3075978.962 0.930
322944.841 3075979.113 0.964
322944.730 3075979.217 0.957
322944.605 3075979.307 0.938
322944.488 3075979.375 0.945
322944.364 3075979.491 0.962
322944.270 3075979.644 0.953
322944.175 3075979.794 0.930
322944.062 3075979.955 0.953
322943.943 3075980.091 0.948
322943.814 3075980.237 0.920
322943.703 3075980.329 0.951
322943.579 3075980.470 0.962
322943.474 3075980.644 0.941
322943.378 3075980.775 0.916
322943.267 3075980.919 0.943
322943.141 3075981.037 0.940
322943.032 3075981.156 0.916
322942.911 3075981.300 0.946
322942.803 3075981.484 0.943
322942.687 3075981.651 0.910
322942.600 3075981.808 0.944
322942.491 3075981.972 0.949
322942.373 3075982.137 0.930
322942.269 3075982.253 0.952
322942.160 3075982.425 0.965
322942.039 3075982.613 0.935
322941.955 3075982.740 0.945
322941.845 3075982.903 0.972
322941.700 3075983.053 0.953
322941.609 3075983.142 0.951
322941.473 3075983.277 0.977
322941.374 3075983.443 0.969
322941.257 3075983.593 0.934
322941.152 3075983.752 0.964
322941.036 3075983.893 0.959
322940.901 3075984.051 0.926
322940.795 3075984.141 0.947
322940.673 3075984.280 0.957
322940.566 3075984.457 0.955
322940.499 3075984.608 0.945
322940.389 3075984.779 0.980
322940.235 3075984.912 0.971
322940.125 3075985.032 0.956
322939.980 3075985.182 0.987
322939.858 3075985.374 0.980
322939.757 3075985.512 0.950
322939.659 3075985.676 0.989
322939.523 3075985.832 0.992
322939.411 3075985.979 0.965
322939.284 3075986.120 1.000
322939.182 3075986.310 1.001
322939.089 3075986.502 0.961
322939.006 3075986.649 1.001
322938.901 3075986.807 1.000
322938.768 3075986.959 0.966
322938.645 3075987.085 0.987
322938.522 3075987.237 1.002
322938.380 3075987.406 0.966
322938.292 3075987.555 1.003
322938.168 3075987.711 1.028
322937.991 3075987.853 1.016
322937.887 3075987.933 1.007
322937.737 3075988.083 1.030
322937.623 3075988.283 1.018
322937.528 3075988.435 0.992
322937.415 3075988.634 1.025
322937.255 3075988.817 1.011
322937.149 3075988.955 0.987
322937.008 3075989.133 1.024
322936.892 3075989.358 1.023
322936.814 3075989.495 1.017
322936.710 3075989.666 1.065
322936.576 3075989.814 1.050
322936.453 3075989.947 1.025
322936.319 3075990.077 1.055
322936.216 3075990.241 1.061
322936.102 3075990.405 1.032
322936.014 3075990.556 1.060
322935.900 3075990.694 1.067
322935.726 3075990.836 1.036
322935.605 3075990.929 1.054
322935.461 3075991.088 1.072
322935.312 3075991.285 1.059
322935.222 3075991.444 1.055
322935.085 3075991.619 1.068
322934.935 3075991.796 1.051
322934.832 3075991.874 1.059
322934.707 3075992.016 1.080
322934.617 3075992.183 1.077
322934.504 3075992.348 1.038
322934.409 3075992.504 1.076
322934.290 3075992.644 1.075
322934.157 3075992.795 1.054
322934.040 3075992.890 1.090
322933.912 3075993.052 1.098
322933.777 3075993.253 1.063
322933.669 3075993.400 1.064
322933.558 3075993.564 1.095
322933.397 3075993.723 1.061
322933.284 3075993.855 1.076
322933.136 3075994.007 1.106
322932.999 3075994.205 1.083
322932.918 3075994.351 1.083
322932.797 3075994.533 1.115
322932.625 3075994.707 1.098
322932.524 3075994.812 1.086
322932.377 3075994.982 1.122
322932.262 3075995.179 1.123
322932.144 3075995.326 1.085
322932.019 3075995.495 1.132
322931.867 3075995.644 1.126
322931.750 3075995.763 1.101
322931.615 3075995.921 1.137
322931.499 3075996.108 1.129
322931.366 3075996.274 1.102
322931.240 3075996.434 1.135
322930.948 3075996.723 1.100
322930.825 3075996.833 1.140
322930.443 3075997.342 1.132
322930.124 3075997.676 1.116
322929.986 3075997.821 1.147
322929.687 3075998.203 1.128
322929.577 3075998.344 1.161
322929.443 3075998.508 1.166
322929.269 3075998.681 1.132
322929.144 3075998.817 1.151
322929.006 3075998.995 1.168
322928.706 3075999.372 1.150
322928.563 3075999.546 1.173
322928.129 3076000.058 1.182
322927.696 3076000.620 1.174
322927.554 3076000.786 1.142
322927.131 3076001.308 1.156
322926.847 3076001.659 1.182
322926.692 3076001.816 1.153
322926.552 3076001.952 1.191
322926.417 3076002.131 1.203
322925.972 3076002.598 1.215
322925.794 3076002.753 1.179
322925.638 3076002.881 1.210
322925.321 3076003.264 1.162
322925.193 3076003.441 1.204
322924.883 3076003.777 1.167
322924.735 3076003.925 1.210
322924.599 3076004.103 1.233
322923.673 3076005.093 1.260
322923.380 3076005.454 1.255
322922.907 3076005.918 1.271
322922.770 3076006.113 1.270
322922.034 3076006.837 1.280
322921.907 3076007.010 1.287
322921.633 3076007.403 1.273
322921.492 3076007.550 1.282
322921.357 3076007.671 1.265
322921.214 3076007.761 1.297
322921.079 3076007.918 1.305
322920.930 3076008.130 1.281
322920.849 3076008.331 1.272
322920.735 3076008.503 1.300
322920.571 3076008.645 1.277
322920.441 3076008.730 1.266
322920.275 3076008.892 1.291
322920.116 3076009.068 1.272
322920.008 3076009.215 1.261
322919.850 3076009.387 1.299
322919.664 3076009.525 1.281
322919.535 3076009.620 1.266
322919.375 3076009.742 1.303
322919.235 3076009.922 1.299
322919.086 3076010.071 1.258
322918.963 3076010.252 1.291
322918.806 3076010.376 1.292
322918.636 3076010.499 1.260
322918.504 3076010.575 1.307
322918.352 3076010.724 1.319
322918.208 3076010.888 1.300
322918.095 3076011.029 1.281
322917.951 3076011.194 1.308
322917.759 3076011.376 1.270
322917.644 3076011.446 1.278
322917.495 3076011.611 1.313
322917.355 3076011.780 1.299
322917.249 3076011.920 1.282
322917.099 3076012.085 1.313
322916.916 3076012.221 1.301
322916.768 3076012.330 1.270
322916.609 3076012.451 1.312
322916.458 3076012.609 1.318
322916.305 3076012.759 1.266
322916.172 3076012.896 1.305
322916.029 3076013.026 1.317
322915.850 3076013.174 1.276
322915.707 3076013.269 1.295
322915.550 3076013.434 1.310
322915.388 3076013.621 1.280
322915.264 3076013.773 1.279
322915.132 3076013.927 1.304
322914.966 3076014.081 1.270
322914.855 3076014.169 1.290
322914.709 3076014.332 1.308
322914.571 3076014.516 1.291
322914.457 3076014.660 1.271
322914.310 3076014.827 1.295
322914.123 3076014.964 1.274
322914.000 3076015.067 1.259
322913.830 3076015.204 1.300
322913.685 3076015.374 1.288
322913.547 3076015.501 1.270
322913.409 3076015.650 1.317
322913.254 3076015.762 1.309
322913.085 3076015.881 1.263
322912.923 3076015.984 1.301
322912.769 3076016.132 1.305
322912.599 3076016.296 1.274
322912.482 3076016.446 1.283
322912.331 3076016.593 1.307
322912.155 3076016.746 1.280
322912.043 3076016.828 1.292
322911.893 3076016.990 1.308
322911.729 3076017.173 1.288
322911.616 3076017.302 1.276
322911.465 3076017.463 1.299
322911.280 3076017.606 1.292
322911.151 3076017.682 1.278
322910.979 3076017.805 1.316
322910.818 3076017.965 1.317
322910.681 3076018.089 1.266
322910.526 3076018.248 1.320
322910.317 3076018.397 1.320
322910.179 3076018.481 1.296
322910.022 3076018.621 1.339
322909.890 3076018.792 1.343
322909.720 3076018.943 1.282
322909.571 3076019.101 1.308
322909.391 3076019.247 1.304
322909.258 3076019.371 1.282
322909.094 3076019.513 1.320
322908.959 3076019.683 1.320
322908.808 3076019.856 1.274
322908.703 3076020.011 1.316
322908.541 3076020.145 1.319
322908.367 3076020.274 1.288
322908.232 3076020.381 1.322
322908.088 3076020.521 1.329
322907.944 3076020.643 1.300
322907.840 3076020.758 1.315
322907.678 3076020.889 1.325
322907.485 3076021.018 1.305
322907.363 3076021.095 1.284
322907.198 3076021.233 1.327
322907.060 3076021.387 1.317
322906.912 3076021.524 1.270
322906.775 3076021.661 1.307
322906.611 3076021.770 1.294
322906.472 3076021.876 1.263
322906.344 3076021.985 1.310
322906.214 3076022.122 1.303
322906.050 3076022.261 1.275
322905.958 3076022.399 1.303
322905.803 3076022.528 1.304
322905.624 3076022.671 1.286
322905.508 3076022.725 1.303
322905.366 3076022.847 1.323
322905.233 3076022.964 1.311
322905.104 3076023.073 1.284
322904.957 3076023.201 1.305
322904.799 3076023.257 1.295
322904.653 3076023.254 1.263
322904.506 3076023.280 1.295
322904.333 3076023.374 1.288
322904.156 3076023.452 1.250
322904.002 3076023.551 1.281
322903.810 3076023.629 1.277
322903.598 3076023.706 1.254
322903.467 3076023.732 1.249
322903.276 3076023.823 1.274
322903.111 3076023.943 1.267
322902.960 3076024.053 1.240
322902.787 3076024.165 1.282
322902.596 3076024.227 1.269
322902.433 3076024.265 1.237
322902.253 3076024.338 1.268
322902.083 3076024.430 1.265
322901.902 3076024.504 1.222
322901.766 3076024.589 1.250
322901.577 3076024.642 1.254
322901.379 3076024.651 1.236
322901.227 3076024.656 1.203
322901.021 3076024.704 1.229
322900.834 3076024.777 1.226
322900.636 3076024.848 1.178
322900.452 3076024.902 1.208
322900.274 3076024.922 1.201
322900.079 3076024.960 1.164
322899.910 3076024.981 1.187
322899.718 3076025.072 1.186
322899.505 3076025.189 1.163
322899.358 3076025.306 1.161
322899.175 3076025.421 1.174
322899.001 3076025.518 1.163
322898.878 3076025.573 1.159
322898.722 3076025.696 1.184
322898.600 3076025.864 1.174
322898.463 3076026.018 1.133
322898.358 3076026.160 1.177
322898.203 3076026.287 1.165
322898.037 3076026.402 1.137
322897.912 3076026.483 1.167
322897.765 3076026.613 1.178
322897.605 3076026.752 1.143
322897.490 3076026.872 1.139
322897.326 3076026.999 1.163
322897.130 3076027.130 1.140
322896.990 3076027.210 1.142
322896.807 3076027.348 1.165
322896.641 3076027.508 1.150
322896.497 3076027.637 1.113
322896.332 3076027.780 1.148
322896.122 3076027.923 1.124
322895.993 3076028.027 1.107
322895.825 3076028.185 1.141
322895.680 3076028.365 1.140
322895.530 3076028.513 1.105
322895.379 3076028.667 1.136
322895.217 3076028.811 1.137
322895.073 3076028.951 1.096
322894.921 3076029.104 1.138
322894.782 3076029.293 1.147
322894.632 3076029.471 1.104
322894.499 3076029.661 1.156
322894.333 3076029.832 1.154
322894.196 3076029.989 1.119
322894.039 3076030.153 1.161
322893.915 3076030.349 1.157
322893.782 3076030.504 1.116
322893.650 3076030.691 1.154
322893.479 3076030.851 1.147
322893.346 3076031.000 1.115
322893.190 3076031.152 1.160
322893.050 3076031.353 1.162
322892.902 3076031.505 1.120
322892.756 3076031.692 1.172
322892.586 3076031.869 1.166
322892.465 3076032.005 1.142
322892.314 3076032.175 1.188
322892.154 3076032.401 1.181
322892.031 3076032.549 1.160
322891.895 3076032.728 1.192
322891.702 3076032.914 1.182
322891.584 3076033.054 1.163
322891.433 3076033.235 1.193
322891.279 3076033.433 1.170
322891.163 3076033.574 1.167
322891.027 3076033.739 1.201
322890.843 3076033.930 1.157
322890.713 3076034.059 1.174
322890.569 3076034.243 1.194
322890.413 3076034.467 1.165
322890.323 3076034.638 1.178
322890.201 3076034.820 1.194
322890.038 3076035.000 1.168
322889.920 3076035.106 1.181
322889.785 3076035.269 1.204
322889.639 3076035.469 1.177
322889.560 3076035.616 1.189
322889.427 3076035.759 1.220
322889.246 3076035.877 1.211
322889.132 3076035.927 1.205
322888.965 3076036.050 1.241
322888.779 3076036.202 1.209
322888.610 3076036.313 1.177
322888.435 3076036.430 1.207
322888.247 3076036.529 1.190
322888.093 3076036.618 1.151
322887.909 3076036.741 1.197
322887.765 3076036.893 1.200
322887.595 3076037.011 1.140
322887.421 3076037.159 1.183
322887.215 3076037.303 1.176
322887.055 3076037.391 1.146
322886.882 3076037.501 1.195
322886.725 3076037.646 1.195
322886.551 3076037.779 1.145
322886.401 3076037.902 1.178
322886.237 3076038.004 1.173
322886.060 3076038.115 1.138
322885.911 3076038.213 1.163
322885.742 3076038.349 1.171
322885.564 3076038.503 1.137
322885.446 3076038.617 1.141
322885.293 3076038.759 1.170
322885.114 3076038.891 1.151
322884.989 3076038.978 1.134
322884.822 3076039.120 1.164
322884.677 3076039.313 1.150
322884.554 3076039.472 1.111
322884.436 3076039.645 1.148
322884.284 3076039.827 1.139
322884.177 3076039.953 1.117
322884.033 3076040.132 1.153
322883.904 3076040.309 1.145
322883.776 3076040.458 1.104
322883.635 3076040.623 1.136
322883.470 3076040.768 1.129
322883.341 3076040.855 1.100
322883.195 3076040.965 1.140
322883.056 3076041.130 1.140
322882.894 3076041.282 1.094
322882.763 3076041.428 1.130
322882.600 3076041.557 1.132
322882.421 3076041.665 1.096
322882.263 3076041.765 1.112
322882.102 3076041.900 1.121
322881.951 3076042.054 1.108
322881.835 3076042.203 1.089
322881.672 3076042.349 1.116
322881.495 3076042.459 1.104
322881.361 3076042.511 1.066
322881.181 3076042.604 1.097
322881.018 3076042.768 1.090
322880.856 3076042.911 1.051
322880.720 3076043.048 1.083
322880.562 3076043.162 1.080
322880.397 3076043.277 1.050
322880.254 3076043.358 1.067
322880.098 3076043.502 1.072
322879.939 3076043.652 1.054
322879.849 3076043.780 1.056
322879.717 3076043.906 1.080
322879.572 3076043.978 1.074
322879.435 3076044.052 1.036
322879.271 3076044.160 1.074
322879.119 3076044.299 1.058
322878.958 3076044.411 1.022
322878.817 3076044.539 1.058
322878.664 3076044.655 1.051
322878.487 3076044.770 1.029
322878.358 3076044.808 1.031
322878.194 3076044.939 1.043
322878.045 3076045.126 1.031
322877.974 3076045.290 1.021
322877.846 3076045.440 1.060
322877.679 3076045.523 1.047
322877.557 3076045.573 1.021
322877.403 3076045.672 1.052
322877.242 3076045.825 1.052
322877.066 3076045.957 1.007
322876.900 3076046.097 1.032
322876.723 3076046.217 1.033
322876.552 3076046.323 0.991
322876.403 3076046.401 1.020
322876.239 3076046.548 1.026
322876.082 3076046.706 0.995
322875.955 3076046.840 1.008
322875.798 3076046.981 1.030
322875.606 3076047.082 1.019
322875.475 3076047.155 1.001
322875.295 3076047.257 1.032
322875.150 3076047.403 1.014
322875.009 3076047.530 0.977
322874.852 3076047.668 1.006
322874.683 3076047.766 0.997
322874.508 3076047.859 0.958
322874.336 3076047.958 0.985
322874.163 3076048.109 0.988
322873.994 3076048.247 0.949
322873.853 3076048.378 0.995
322873.689 3076048.497 0.989
322873.517 3076048.640 0.963
322873.364 3076048.750 0.987
322873.202 3076048.895 0.987
322873.024 3076049.055 0.948
322872.901 3076049.192 0.970
322872.739 3076049.322 0.981
322872.532 3076049.442 0.952
322872.395 3076049.515 0.968
322872.223 3076049.649 0.987
322872.047 3076049.805 0.958
322871.922 3076049.950 0.954
322871.743 3076050.080 0.974
322871.522 3076050.209 0.955
322871.376 3076050.252 0.945
322871.182 3076050.350 0.971
322871.015 3076050.461 0.961
322870.887 3076050.562 0.944
322870.716 3076050.687 0.971
322870.529 3076050.766 0.968
322870.363 3076050.811 0.930
322870.167 3076050.917 0.961
322869.985 3076051.097 0.932
322869.899 3076051.251 0.943
322869.763 3076051.392 0.968
322869.589 3076051.501 0.960
322869.419 3076051.648 0.951
322869.265 3076051.790 0.954
322869.077 3076051.924 0.908
322868.920 3076052.054 0.932
322868.746 3076052.166 0.933
322868.572 3076052.269 0.917
322868.426 3076052.357 0.938
322868.272 3076052.494 0.948
322868.092 3076052.666 0.918
322867.969 3076052.813 0.933
322867.816 3076052.957 0.942
322867.638 3076053.100 0.921
322867.507 3076053.200 0.936
322867.355 3076053.364 0.949
322867.190 3076053.587 0.916
322867.082 3076053.752 0.926
322866.952 3076053.920 0.947
322866.782 3076054.098 0.927
322866.669 3076054.194 0.942
322866.526 3076054.355 0.964
322866.410 3076054.541 0.948
322866.312 3076054.682 0.931
322866.184 3076054.846 0.967
322866.022 3076054.957 0.959
322865.894 3076055.062 0.929
322865.725 3076055.192 0.964
322865.577 3076055.368 0.954
322865.438 3076055.505 0.924
322865.286 3076055.682 0.955
322865.101 3076055.843 0.946
322864.978 3076055.949 0.933
322864.820 3076056.111 0.967
322864.703 3076056.295 0.962
322864.570 3076056.464 0.925
322864.445 3076056.657 0.958
322864.285 3076056.837 0.953
322864.165 3076056.977 0.935
322864.018 3076057.146 0.959
322863.877 3076057.337 0.949
322863.753 3076057.483 0.934
322863.611 3076057.647 0.968
322863.420 3076057.806 0.969
322863.299 3076057.943 0.954
322863.137 3076058.112 0.999
322862.963 3076058.323 0.981
322862.834 3076058.454 0.964
322862.697 3076058.608 0.996
322862.504 3076058.797 0.979
322862.382 3076058.890 0.959
322862.227 3076059.052 0.980
322862.071 3076059.224 0.967
322861.962 3076059.351 0.953
322861.809 3076059.496 0.984
322861.630 3076059.578 0.982
322861.477 3076059.650 0.943
322861.289 3076059.754 0.980
322861.114 3076059.898 0.974
322860.957 3076060.012 0.936
322860.803 3076060.155 0.975
322860.626 3076060.253 0.962
322860.462 3076060.359 0.939
322860.298 3076060.442 0.976
322860.147 3076060.585 0.965
322859.963 3076060.743 0.923
322859.853 3076060.860 0.957
322859.683 3076060.972 0.969
322859.497 3076061.117 0.932
322859.339 3076061.239 0.959
322859.180 3076061.388 0.975
322858.992 3076061.542 0.934
322858.861 3076061.700 0.969
322858.682 3076061.835 0.974
322858.490 3076061.973 0.953
322858.353 3076062.056 0.972
322858.188 3076062.201 0.978
322857.994 3076062.340 0.939
322857.859 3076062.481 0.946
322857.674 3076062.611 0.955
322857.464 3076062.738 0.926
322857.314 3076062.819 0.931
322857.128 3076062.948 0.954
322856.955 3076063.100 0.938
322856.831 3076063.219 0.924
322856.656 3076063.346 0.955
322856.455 3076063.445 0.948
322856.321 3076063.503 0.934
322856.134 3076063.617 0.970
322855.972 3076063.788 0.967
322855.825 3076063.947 0.923
322855.667 3076064.111 0.951
322855.492 3076064.238 0.930
322855.360 3076064.348 0.913
322855.209 3076064.467 0.947
322855.105 3076064.621 0.949
322854.975 3076064.789 0.912
322854.871 3076064.959 0.958
322854.730 3076065.107 0.962
322854.593 3076065.240 0.932
322854.455 3076065.393 0.976
322854.321 3076065.582 0.979
322854.168 3076065.768 0.931
322854.036 3076065.937 0.964
322853.881 3076066.078 0.960
322853.720 3076066.213 0.908
322853.568 3076066.343 0.942
322853.433 3076066.522 0.950
322853.278 3076066.690 0.906
322853.165 3076066.874 0.950
322853.005 3076067.034 0.958
322852.854 3076067.197 0.925
322852.706 3076067.336 0.972
322852.574 3076067.519 0.983
322852.430 3076067.712 0.932
322852.312 3076067.884 0.976
322852.162 3076068.054 0.968
322852.015 3076068.218 0.935
322851.860 3076068.370 0.970
322851.727 3076068.539 0.972
322851.582 3076068.709 0.937
322851.464 3076068.860 0.974
322851.315 3076068.987 0.972
322851.123 3076069.114 0.949
322850.973 3076069.216 0.970
322850.826 3076069.410 0.990
322850.661 3076069.621 0.951
322850.546 3076069.816 0.981
322850.409 3076069.981 0.996
322850.272 3076070.129 0.975
322850.139 3076070.252 1.010
322850.026 3076070.402 1.032
322849.862 3076070.602 0.994
322849.757 3076070.781 1.002
322849.630 3076070.934 1.018
322849.451 3076071.075 1.000
322849.310 3076071.144 0.994
322849.134 3076071.296 1.014
322848.949 3076071.490 0.985
322848.847 3076071.649 0.991
322848.700 3076071.817 1.013
322848.507 3076072.006 1.005
322848.371 3076072.126 0.991
322848.206 3076072.286 1.025
322848.043 3076072.500 0.999
322847.930 3076072.646 0.985
322847.788 3076072.824 1.021
322847.593 3076072.991 1.013
322847.458 3076073.113 0.991
322847.291 3076073.270 1.024
322847.125 3076073.487 1.001
322846.992 3076073.645 0.992
322846.847 3076073.820 1.016
322846.643 3076074.003 0.976
322846.503 3076074.141 0.996
322846.352 3076074.326 1.022
322846.161 3076074.540 0.978
322846.039 3076074.703 1.017
322845.874 3076074.863 1.034
322845.690 3076075.035 0.999
322845.547 3076075.185 1.036
322845.401 3076075.363 1.049
322845.234 3076075.555 1.005
322845.109 3076075.724 1.025
322844.949 3076075.868 1.033
322844.758 3076076.014 0.998
322844.607 3076076.138 1.020
322844.451 3076076.318 1.030
322844.260 3076076.499 0.981
322844.139 3076076.647 1.019
322843.982 3076076.794 1.026
322843.795 3076076.939 0.996
322843.647 3076077.062 1.031
322843.509 3076077.250 1.057
322843.339 3076077.455 1.012
322843.221 3076077.613 1.047
322843.062 3076077.762 1.054
322842.892 3076077.906 1.014
322842.751 3076078.038 1.046
322842.620 3076078.201 1.063
322842.468 3076078.381 1.033
322842.362 3076078.531 1.044
322842.220 3076078.694 1.062
322842.047 3076078.853 1.035
322841.920 3076078.971 1.060
322841.775 3076079.133 1.076
322841.635 3076079.327 1.057
322841.545 3076079.469 1.056
322841.412 3076079.641 1.082
322841.240 3076079.811 1.061
322841.128 3076079.913 1.045
322840.972 3076080.071 1.069
322840.803 3076080.259 1.048
322840.688 3076080.401 1.034
322840.549 3076080.568 1.068
322840.346 3076080.720 1.055
322840.207 3076080.829 1.033
322840.036 3076080.980 1.066
322839.898 3076081.175 1.069
322839.773 3076081.310 1.044
322839.640 3076081.485 1.089
322839.457 3076081.676 1.084
322839.336 3076081.794 1.069
322839.179 3076081.965 1.106
322839.027 3076082.171 1.095
322838.896 3076082.321 1.066
322838.759 3076082.493 1.111
322838.579 3076082.645 1.100
322838.443 3076082.781 1.071
322838.285 3076082.940 1.102
322838.124 3076083.116 1.094
322837.993 3076083.254 1.059
322837.849 3076083.418 1.097
322837.682 3076083.557 1.084
322837.530 3076083.682 1.057
322837.374 3076083.825 1.090
322837.236 3076084.003 1.086
322837.076 3076084.156 1.037
322836.959 3076084.325 1.079
322836.811 3076084.473 1.088
322836.656 3076084.639 1.056
322836.516 3076084.778 1.099
322836.389 3076084.971 1.119
322836.226 3076085.165 1.058
322836.094 3076085.336 1.103
322835.929 3076085.503 1.099
322835.775 3076085.680 1.035
322835.614 3076085.842 1.087
322835.471 3076086.028 1.092
322835.305 3076086.191 1.051
322835.181 3076086.349 1.097
322835.028 3076086.479 1.105
322834.863 3076086.637 1.072
322834.717 3076086.746 1.100
322834.565 3076086.903 1.112
322834.385 3076087.067 1.064
322834.269 3076087.212 1.096
322834.122 3076087.340 1.109
322833.934 3076087.488 1.102
322833.806 3076087.592 1.095
322833.631 3076087.733 1.113
322833.464 3076087.916 1.077
322833.342 3076088.037 1.071
322833.188 3076088.189 1.101
322832.995 3076088.350 1.094
322832.871 3076088.441 1.073
322832.706 3076088.586 1.109
322832.547 3076088.780 1.088
322832.427 3076088.935 1.072
322832.277 3076089.116 1.097
322832.096 3076089.264 1.098
322831.965 3076089.363 1.077
322831.800 3076089.525 1.104
322831.661 3076089.716 1.097
322831.530 3076089.879 1.047
322831.393 3076090.047 1.101
322831.223 3076090.164 1.088
322831.091 3076090.271 1.066
322830.941 3076090.396 1.100
322830.817 3076090.549 1.105
322830.663 3076090.708 1.047
322830.530 3076090.881 1.085
322830.368 3076091.004 1.090
322830.203 3076091.122 1.062
322830.038 3076091.228 1.097
322829.898 3076091.398 1.089
322829.717 3076091.587 1.055
322829.619 3076091.750 1.083
322829.479 3076091.912 1.090
322829.310 3076092.084 1.058
322829.192 3076092.190 1.079
322829.042 3076092.347 1.089
322828.895 3076092.542 1.064
322828.800 3076092.687 1.069
322828.673 3076092.864 1.109
322828.504 3076093.011 1.095
322828.395 3076093.135 1.070
322828.232 3076093.300 1.107
322828.099 3076093.520 1.101
322827.979 3076093.664 1.062
322827.856 3076093.844 1.104
322827.710 3076093.997 1.107
322827.596 3076094.131 1.070
322827.454 3076094.293 1.120
322827.329 3076094.488 1.113
322827.191 3076094.648 1.070
322827.069 3076094.812 1.123
322826.926 3076094.929 1.118
322826.758 3076095.057 1.077
322826.621 3076095.157 1.127
322826.470 3076095.318 1.124
322826.282 3076095.460 1.071
322826.123 3076095.604 1.110
322825.950 3076095.712 1.111
322825.748 3076095.826 1.071
322825.590 3076095.885 1.100
322825.414 3076096.017 1.107
322825.225 3076096.160 1.081
322825.089 3076096.273 1.089
322824.927 3076096.401 1.113
322824.732 3076096.533 1.087
322824.613 3076096.593 1.072
322824.437 3076096.722 1.103
322824.257 3076096.928 1.081
322824.130 3076097.085 1.051
322823.986 3076097.254 1.084
322823.797 3076097.408 1.073
322823.663 3076097.534 1.057
322823.501 3076097.707 1.082
322823.342 3076097.917 1.073
322823.239 3076098.059 1.038
322823.111 3076098.248 1.085
322822.929 3076098.436 1.066
322822.805 3076098.546 1.051
322822.646 3076098.711 1.087
322822.519 3076098.934 1.074
322822.390 3076099.097 1.035
322822.267 3076099.271 1.087
322822.102 3076099.426 1.077
322821.959 3076099.590 1.033
322821.806 3076099.766 1.070
322821.627 3076099.966 1.060
322821.514 3076100.126 1.051
322821.358 3076100.307 1.088
322821.166 3076100.487 1.076
322821.040 3076100.594 1.053
322820.878 3076100.756 1.086
322820.735 3076100.951 1.072
322820.592 3076101.094 1.026
322820.447 3076101.262 1.081
322820.265 3076101.406 1.067
322820.123 3076101.523 1.016
322819.957 3076101.676 1.065
322819.805 3076101.834 1.072
322819.648 3076101.975 1.034
322819.494 3076102.121 1.081
322819.317 3076102.248 1.072
322819.154 3076102.366 1.036
322818.983 3076102.494 1.066
322818.842 3076102.667 1.065
322818.676 3076102.840 1.010
322818.542 3076102.990 1.045
322818.386 3076103.115 1.044
322818.210 3076103.238 1.022
322818.046 3076103.342 1.057
322817.891 3076103.514 1.061
322817.702 3076103.698 1.006
322817.566 3076103.849 1.034
322817.410 3076103.989 1.042
322817.230 3076104.142 1.003
322817.102 3076104.257 1.026
322816.943 3076104.416 1.051
322816.755 3076104.613 1.002
322816.608 3076104.768 1.011
322816.452 3076104.914 1.031
322816.256 3076105.077 1.012
322816.119 3076105.198 1.040
322815.966 3076105.365 1.060
322815.763 3076105.540 1.021
322815.618 3076105.707 1.028
322815.456 3076105.860 1.048
322815.281 3076106.026 1.007
322815.140 3076106.153 1.027
322814.991 3076106.320 1.025
322814.798 3076106.514 0.991
322814.663 3076106.661 1.014
322814.519 3076106.817 1.028
322814.309 3076106.978 1.029
322814.176 3076107.105 1.028
322814.029 3076107.282 1.050
322813.844 3076107.470 1.020
322813.700 3076107.614 1.026
322813.545 3076107.756 1.049
322813.349 3076107.925 1.004
322813.209 3076108.004 1.019
322813.051 3076108.173 1.042
322812.873 3076108.377 1.000
322812.786 3076108.527 1.016
322812.634 3076108.685 1.025
322812.415 3076108.855 0.993
322812.282 3076108.960 1.001
322812.124 3076109.118 1.015
322811.935 3076109.300 0.972
322811.807 3076109.440 0.984
322811.644 3076109.589 1.005
322811.457 3076109.727 0.995
322811.328 3076109.840 0.984
322811.154 3076109.987 1.013
322810.981 3076110.169 0.994
322810.851 3076110.304 0.973
322810.690 3076110.469 1.014
322810.483 3076110.613 0.985
322810.359 3076110.694 0.966
322810.188 3076110.817 1.006
322810.021 3076110.999 0.998
322809.871 3076111.117 0.945
322809.705 3076111.284 0.991
322809.506 3076111.441 0.982
322809.369 3076111.565 0.961
322809.193 3076111.721 1.008
322809.039 3076111.903 1.003
322808.896 3076112.051 0.961
322808.757 3076112.211 1.009
322808.612 3076112.319 1.010
322808.469 3076112.455 0.976
322808.293 3076112.604 1.018
322808.123 3076112.817 1.008
322807.966 3076112.964 0.960
322807.803 3076113.150 1.010
322807.596 3076113.308 0.998
322807.455 3076113.396 0.964
322807.286 3076113.528 1.009
322807.136 3076113.696 1.011
322806.966 3076113.846 0.961
322806.800 3076114.015 1.002
322806.622 3076114.131 1.001
322806.454 3076114.230 0.966
322806.292 3076114.344 1.011
322806.132 3076114.508 1.011
322805.928 3076114.651 0.960
322805.775 3076114.794 1.002
322805.603 3076114.914 1.015
322805.393 3076115.065 0.986
322805.240 3076115.173 1.001
322805.073 3076115.322 1.015
322804.874 3076115.494 0.958
322804.725 3076115.638 0.981
322804.565 3076115.767 1.003
322804.348 3076115.925 0.973
322804.187 3076116.031 0.995
322804.012 3076116.189 1.019
322803.811 3076116.355 0.982
322803.667 3076116.489 1.008
322803.503 3076116.619 1.029
322803.291 3076116.760 0.993
322803.137 3076116.858 1.001
322802.964 3076117.020 1.027
322802.743 3076117.207 0.979
