322802.828 3076148.307 1.923
322802.824 3076148.303 1.922
322802.823 3076148.304 1.922
322803.017 3076148.042 1.922
322803.028 3076147.890 1.920
322803.018 3076147.771 1.918
322803.006 3076147.711 1.917
322803.024 3076147.650 1.916
322802.946 3076147.527 1.912
322802.811 3076147.404 1.908
322802.641 3076147.320 1.896
322802.494 3076147.261 1.888
322802.402 3076147.185 1.884
322802.312 3076147.077 1.879
322802.302 3076146.975 1.877
322802.243 3076146.877 1.875
322802.154 3076146.802 1.874
322802.024 3076146.711 1.877
322801.887 3076146.662 1.884
322801.777 3076146.586 1.888
322801.726 3076146.496 1.888
322801.647 3076146.354 1.885
322801.624 3076146.245 1.883
322801.506 3076146.095 1.879
322801.365 3076145.983 1.866
322801.195 3076145.869 1.846
322801.033 3076145.760 1.839
322800.949 3076145.611 1.834
322800.839 3076145.436 1.828
322800.780 3076145.296 1.828
322800.667 3076145.156 1.830
322800.545 3076145.054 1.826
322800.404 3076144.935 1.816
322800.260 3076144.790 1.808
322800.171 3076144.641 1.803
322800.100 3076144.487 1.801
322800.024 3076144.347 1.803
322799.884 3076144.203 1.808
322799.716 3076144.088 1.803
322799.563 3076144.004 1.799
322799.419 3076143.866 1.798
322799.318 3076143.714 1.797
322799.272 3076143.587 1.797
322799.202 3076143.464 1.795
322799.087 3076143.369 1.788
322798.949 3076143.264 1.775
322798.789 3076143.180 1.764
322798.670 3076143.067 1.756
322798.603 3076142.966 1.751
322798.548 3076142.843 1.745
322798.431 3076142.683 1.737
322798.286 3076142.565 1.723
322798.124 3076142.438 1.700
322797.979 3076142.340 1.688
322797.861 3076142.207 1.682
322797.787 3076142.053 1.680
322797.748 3076141.952 1.679
322797.607 3076141.796 1.677
322797.451 3076141.684 1.666
322797.297 3076141.561 1.649
322797.141 3076141.421 1.633
322797.016 3076141.258 1.625
322796.975 3076141.124 1.624
322796.897 3076140.987 1.626
322796.763 3076140.844 1.631
322796.593 3076140.720 1.626
322796.421 3076140.619 1.622
322796.279 3076140.478 1.618
322796.182 3076140.342 1.613
322796.110 3076140.220 1.610
322796.022 3076140.085 1.608
322795.880 3076139.974 1.600
322795.715 3076139.852 1.575
322795.560 3076139.767 1.551
322795.425 3076139.609 1.538
322795.323 3076139.437 1.540
322795.255 3076139.311 1.547
322795.111 3076139.139 1.558
322794.946 3076138.991 1.551
322794.807 3076138.862 1.538
322794.642 3076138.711 1.530
322794.510 3076138.551 1.519
322794.428 3076138.383 1.508
322794.302 3076138.223 1.504
322794.151 3076138.093 1.499
322793.993 3076137.947 1.485
322793.851 3076137.822 1.478
322793.711 3076137.681 1.476
322793.611 3076137.520 1.470
322793.510 3076137.392 1.467
322793.406 3076137.235 1.470
322793.240 3076137.111 1.470
322793.063 3076136.962 1.458
322792.910 3076136.858 1.458
322792.767 3076136.714 1.458
322792.675 3076136.565 1.451
322792.613 3076136.438 1.445
322792.499 3076136.294 1.438
322792.360 3076136.194 1.430
322792.220 3076136.069 1.414
322792.054 3076135.932 1.401
322791.897 3076135.771 1.393
322791.816 3076135.624 1.385
322791.749 3076135.497 1.380
322791.649 3076135.365 1.374
322791.521 3076135.254 1.365
322791.362 3076135.148 1.349
322791.186 3076135.072 1.340
322791.052 3076134.930 1.336
322790.978 3076134.768 1.328
322790.928 3076134.640 1.321
322790.805 3076134.465 1.308
322790.657 3076134.319 1.297
322790.535 3076134.213 1.290
322790.395 3076134.079 1.282
322790.293 3076133.920 1.269
322790.215 3076133.768 1.256
322790.165 3076133.628 1.247
322790.013 3076133.462 1.241
322789.828 3076133.342 1.225
322789.664 3076133.202 1.203
322789.508 3076133.053 1.187
322789.387 3076132.894 1.174
322789.331 3076132.762 1.166
322789.202 3076132.589 1.157
322789.026 3076132.455 1.142
322788.835 3076132.356 1.125
322788.640 3076132.215 1.121
322788.522 3076132.057 1.113
322788.475 3076131.897 1.104
322788.382 3076131.745 1.096
322788.206 3076131.597 1.081
322788.015 3076131.445 1.054
322787.864 3076131.327 1.045
322787.744 3076131.176 1.041
322787.617 3076131.006 1.027
322787.531 3076130.843 1.017
322787.429 3076130.692 1.012
322787.283 3076130.568 1.000
322787.107 3076130.436 0.982
322786.974 3076130.353 0.976
322786.840 3076130.220 0.970
322786.735 3076130.089 0.958
322786.679 3076129.959 0.950
322786.560 3076129.817 0.943
322786.431 3076129.707 0.939
322786.277 3076129.587 0.928
322786.132 3076129.474 0.920
322785.991 3076129.320 0.915
322785.899 3076129.144 0.909
322785.841 3076129.011 0.906
322785.718 3076128.844 0.904
322785.553 3076128.713 0.895
322785.399 3076128.565 0.878
322785.232 3076128.417 0.869
322785.124 3076128.251 0.861
322785.036 3076128.090 0.855
322784.991 3076127.965 0.854
322784.875 3076127.822 0.854
322784.723 3076127.687 0.845
322784.561 3076127.549 0.828
322784.410 3076127.375 0.817
322784.330 3076127.194 0.808
322784.273 3076127.054 0.802
322784.162 3076126.876 0.794
322784.021 3076126.743 0.783
322783.906 3076126.585 0.768
322783.768 3076126.432 0.759
322783.657 3076126.262 0.755
322783.577 3076126.084 0.750
322783.522 3076125.953 0.748
322783.389 3076125.787 0.741
322783.199 3076125.639 0.720
322783.056 3076125.551 0.708
322782.908 3076125.425 0.695
322782.809 3076125.279 0.683
322782.753 3076125.152 0.675
322782.641 3076124.994 0.668
322782.486 3076124.870 0.660
322782.325 3076124.729 0.648
322782.165 3076124.636 0.648
322782.053 3076124.479 0.646
322781.974 3076124.334 0.640
322781.940 3076124.201 0.634
322781.833 3076124.031 0.629
322781.684 3076123.905 0.615
322781.496 3076123.755 0.582
322781.323 3076123.590 0.564
322781.185 3076123.415 0.553
322781.100 3076123.247 0.549
322780.990 3076123.087 0.552
322780.846 3076122.964 0.550
322780.661 3076122.825 0.536
322780.490 3076122.716 0.532
322780.351 3076122.572 0.531
322780.247 3076122.419 0.530
322780.185 3076122.289 0.532
322780.050 3076122.136 0.536
322779.886 3076122.009 0.530
322779.742 3076121.911 0.524
322779.572 3076121.773 0.520
322779.457 3076121.628 0.514
322779.364 3076121.498 0.510
322779.288 3076121.369 0.510
322779.156 3076121.224 0.510
322778.989 3076121.082 0.496
322778.835 3076120.982 0.484
322778.670 3076120.836 0.474
322778.558 3076120.675 0.463
322778.494 3076120.547 0.457
322778.373 3076120.387 0.452
322778.227 3076120.263 0.447
322778.078 3076120.127 0.433
322777.918 3076119.989 0.421
322777.787 3076119.827 0.412
322777.691 3076119.654 0.405
322777.618 3076119.524 0.403
322777.484 3076119.355 0.404
322777.318 3076119.205 0.392
322777.165 3076119.068 0.377
322776.996 3076118.917 0.369
322776.856 3076118.754 0.365
322776.789 3076118.639 0.365
322776.661 3076118.469 0.369
322776.503 3076118.345 0.365
322776.351 3076118.192 0.349
322776.178 3076118.047 0.342
322776.039 3076117.889 0.336
322775.930 3076117.731 0.329
322775.811 3076117.573 0.330
322775.649 3076117.425 0.329
322775.492 3076117.252 0.315
322775.311 3076117.125 0.311
322775.160 3076116.966 0.308
322775.012 3076116.789 0.302
322774.924 3076116.645 0.304
322774.785 3076116.486 0.308
322774.623 3076116.329 0.300
322774.469 3076116.216 0.294
322774.299 3076116.056 0.293
322774.155 3076115.876 0.284
322774.095 3076115.750 0.280
322773.944 3076115.569 0.280
322773.774 3076115.441 0.271
322773.621 3076115.301 0.254
322773.446 3076115.166 0.246
322773.314 3076115.003 0.240
322773.195 3076114.842 0.228
322773.099 3076114.698 0.222
322772.950 3076114.539 0.217
322772.785 3076114.389 0.201
322772.633 3076114.277 0.189
322772.497 3076114.127 0.180
322772.393 3076113.972 0.169
322772.307 3076113.819 0.159
322772.193 3076113.649 0.155
322772.049 3076113.511 0.153
322771.893 3076113.369 0.137
322771.732 3076113.249 0.129
322771.576 3076113.111 0.125
322771.458 3076112.957 0.112
322771.411 3076112.817 0.102
322771.333 3076112.652 0.090
322771.232 3076112.529 0.084
322771.114 3076112.375 0.081
322770.979 3076112.293 0.080
322770.854 3076112.136 0.076
322770.698 3076111.964 0.057
322770.654 3076111.820 0.050
322770.527 3076111.680 0.045
322770.400 3076111.575 0.039
322770.231 3076111.445 0.024
322770.065 3076111.358 0.016
322769.908 3076111.232 0.011
322769.778 3076111.083 -0.001
322769.688 3076110.936 -0.010
322769.562 3076110.787 -0.013
322769.408 3076110.671 -0.020
322769.247 3076110.534 -0.034
322769.071 3076110.413 -0.037
322768.915 3076110.265 -0.041
322768.784 3076110.104 -0.051
322768.679 3076109.970 -0.052
322768.536 3076109.821 -0.048
322768.366 3076109.694 -0.055
322768.217 3076109.578 -0.064
322768.059 3076109.444 -0.067
322767.934 3076109.295 -0.073
322767.823 3076109.164 -0.080
322767.732 3076109.029 -0.082
322767.606 3076108.892 -0.083
322767.454 3076108.772 -0.092
322767.311 3076108.666 -0.103
322767.139 3076108.529 -0.114
322767.029 3076108.391 -0.123
322766.961 3076108.259 -0.129
322766.872 3076108.110 -0.133
322766.751 3076107.979 -0.133
322766.601 3076107.831 -0.139
322766.439 3076107.747 -0.145
322766.272 3076107.595 -0.154
322766.165 3076107.448 -0.167
322766.099 3076107.308 -0.175
322766.019 3076107.169 -0.178
322765.887 3076107.024 -0.178
322765.753 3076106.905 -0.183
322765.614 3076106.804 -0.190
322765.453 3076106.670 -0.198
322765.328 3076106.521 -0.208
322765.251 3076106.388 -0.214
322765.171 3076106.249 -0.217
322765.039 3076106.119 -0.216
322764.883 3076106.012 -0.225
322764.730 3076105.914 -0.238
322764.575 3076105.795 -0.248
322764.472 3076105.653 -0.258
322764.366 3076105.498 -0.268
322764.280 3076105.358 -0.272
322764.144 3076105.220 -0.272
322763.994 3076105.098 -0.278
322763.835 3076104.993 -0.284
322763.669 3076104.860 -0.291
322763.562 3076104.732 -0.304
322763.501 3076104.574 -0.317
322763.422 3076104.443 -0.325
322763.280 3076104.303 -0.333
322763.156 3076104.200 -0.343
322763.016 3076104.105 -0.356
322762.860 3076104.004 -0.364
322762.740 3076103.883 -0.368
322762.667 3076103.759 -0.372
322762.631 3076103.638 -0.375
322762.531 3076103.515 -0.380
322762.385 3076103.409 -0.389
322762.259 3076103.318 -0.399
322762.137 3076103.220 -0.410
322762.060 3076103.108 -0.418
322761.990 3076102.982 -0.425
322761.940 3076102.885 -0.432
322761.809 3076102.781 -0.446
322761.673 3076102.713 -0.461
322761.584 3076102.615 -0.477
322761.479 3076102.486 -0.493
322761.408 3076102.362 -0.496
322761.346 3076102.244 -0.491
322761.287 3076102.137 -0.481
322761.164 3076102.044 -0.469
322761.037 3076101.982 -0.465
322760.911 3076101.940 -0.468
322760.841 3076101.956 -0.469
322760.767 3076101.911 -0.470
322760.718 3076101.856 -0.472
322760.697 3076101.815 -0.472
322760.695 3076101.777 -0.473
322760.699 3076101.753 -0.473
