323127.997 3075850.464 2.192
323128.041 3075850.397 2.192
323127.976 3075850.439 2.191
323127.959 3075850.448 2.191
323127.905 3075850.444 2.189
323127.880 3075850.416 2.187
323127.863 3075850.345 2.182
323127.903 3075850.279 2.181
323127.833 3075850.144 2.161
323127.725 3075850.007 2.112
323127.626 3075849.944 2.081
323127.548 3075849.851 2.057
323127.493 3075849.723 2.032
323127.519 3075849.624 2.023
323127.461 3075849.511 1.999
323127.389 3075849.417 1.974
323127.292 3075849.407 1.955
323127.221 3075849.331 1.930
323127.157 3075849.180 1.896
323127.129 3075849.051 1.872
323127.024 3075848.914 1.836
323126.857 3075848.788 1.804
323126.738 3075848.729 1.791
323126.663 3075848.616 1.782
323126.569 3075848.460 1.774
323126.501 3075848.329 1.769
323126.362 3075848.222 1.765
323126.181 3075848.114 1.759
323126.033 3075848.058 1.755
323125.922 3075847.932 1.755
323125.880 3075847.792 1.755
323125.863 3075847.695 1.756
323125.750 3075847.571 1.754
323125.631 3075847.456 1.748
323125.512 3075847.361 1.740
323125.423 3075847.255 1.732
323125.373 3075847.140 1.726
323125.326 3075847.013 1.719
323125.321 3075846.904 1.714
323125.247 3075846.794 1.704
323125.154 3075846.707 1.691
323125.056 3075846.652 1.682
323124.963 3075846.620 1.675
323124.885 3075846.535 1.668
323124.880 3075846.457 1.665
323124.840 3075846.336 1.660
323124.814 3075846.240 1.655
323124.737 3075846.146 1.645
323124.627 3075846.058 1.633
323124.517 3075846.006 1.624
323124.414 3075845.982 1.617
323124.323 3075845.902 1.610
323124.285 3075845.800 1.605
323124.243 3075845.697 1.602
323124.176 3075845.586 1.598
323124.049 3075845.496 1.590
323123.902 3075845.401 1.581
323123.762 3075845.345 1.575
323123.640 3075845.244 1.571
323123.573 3075845.144 1.568
323123.514 3075845.021 1.563
323123.479 3075844.917 1.559
323123.392 3075844.821 1.554
323123.299 3075844.735 1.550
323123.177 3075844.644 1.549
323123.063 3075844.541 1.549
323122.977 3075844.424 1.548
323122.905 3075844.293 1.545
323122.879 3075844.165 1.543
323122.836 3075844.035 1.541
323122.757 3075843.934 1.540
323122.628 3075843.834 1.542
323122.503 3075843.778 1.545
323122.404 3075843.694 1.546
323122.348 3075843.595 1.541
323122.339 3075843.492 1.536
323122.256 3075843.340 1.520
323122.232 3075843.219 1.509
323122.112 3075843.112 1.496
323121.958 3075843.025 1.489
323121.823 3075842.971 1.486
323121.705 3075842.886 1.481
323121.648 3075842.803 1.477
323121.579 3075842.684 1.471
323121.585 3075842.572 1.468
323121.476 3075842.460 1.461
323121.304 3075842.387 1.454
323121.130 3075842.333 1.448
323120.973 3075842.280 1.445
323120.872 3075842.195 1.444
323120.841 3075842.083 1.444
323120.865 3075841.997 1.444
323120.778 3075841.906 1.441
323120.669 3075841.836 1.438
323120.493 3075841.745 1.434
323120.355 3075841.637 1.430
323120.249 3075841.511 1.423
323120.147 3075841.357 1.418
323120.152 3075841.248 1.416
323120.106 3075841.136 1.415
323119.998 3075841.056 1.417
323119.857 3075840.976 1.419
323119.724 3075840.897 1.418
323119.648 3075840.773 1.417
323119.642 3075840.638 1.415
323119.624 3075840.513 1.411
323119.539 3075840.351 1.402
323119.430 3075840.215 1.395
323119.305 3075840.166 1.392
323119.233 3075840.058 1.389
323119.195 3075839.932 1.389
323119.159 3075839.772 1.390
323119.195 3075839.653 1.390
323119.168 3075839.539 1.391
323119.116 3075839.468 1.391
323119.006 3075839.374 1.388
323118.868 3075839.276 1.382
323118.723 3075839.182 1.377
323118.616 3075839.075 1.372
323118.523 3075838.945 1.364
323118.500 3075838.828 1.359
323118.376 3075838.711 1.352
323118.207 3075838.607 1.351
323118.039 3075838.581 1.354
323117.911 3075838.504 1.355
323117.815 3075838.382 1.350
323117.773 3075838.261 1.343
323117.655 3075838.137 1.328
323117.493 3075838.020 1.318
323117.320 3075837.997 1.314
323117.172 3075837.904 1.307
323117.090 3075837.768 1.299
323117.047 3075837.659 1.293
323116.901 3075837.514 1.278
323116.715 3075837.386 1.265
323116.573 3075837.342 1.258
323116.445 3075837.235 1.250
323116.346 3075837.105 1.243
323116.323 3075836.993 1.238
323116.192 3075836.865 1.229
323116.049 3075836.786 1.224
323115.922 3075836.762 1.220
323115.811 3075836.674 1.214
323115.749 3075836.572 1.210
323115.689 3075836.451 1.205
323115.641 3075836.332 1.200
323115.535 3075836.239 1.192
323115.401 3075836.160 1.183
323115.278 3075836.107 1.172
323115.158 3075836.038 1.160
323115.094 3075835.951 1.153
323115.046 3075835.838 1.147
323115.075 3075835.770 1.146
323114.972 3075835.670 1.137
323114.830 3075835.583 1.125
323114.694 3075835.532 1.115
323114.571 3075835.465 1.106
323114.512 3075835.378 1.101
323114.467 3075835.266 1.096
323114.414 3075835.169 1.090
323114.289 3075835.073 1.078
323114.132 3075835.009 1.069
323113.990 3075834.987 1.062
323113.893 3075834.933 1.057
323113.871 3075834.867 1.054
323113.830 3075834.753 1.048
323113.822 3075834.660 1.044
323113.726 3075834.551 1.031
323113.602 3075834.483 1.021
323113.481 3075834.441 1.016
323113.363 3075834.435 1.013
323113.265 3075834.392 1.011
323113.219 3075834.324 1.010
323113.205 3075834.229 1.009
323113.250 3075834.164 1.009
323113.164 3075834.067 1.005
323113.026 3075833.994 0.998
323112.887 3075833.945 0.989
323112.759 3075833.892 0.982
323112.672 3075833.796 0.977
323112.646 3075833.690 0.975
323112.653 3075833.603 0.973
323112.593 3075833.503 0.970
323112.478 3075833.409 0.965
323112.352 3075833.340 0.962
323112.228 3075833.286 0.960
323112.121 3075833.223 0.956
323112.044 3075833.138 0.952
323112.013 3075833.039 0.948
323111.972 3075832.936 0.944
323111.938 3075832.835 0.941
323111.873 3075832.762 0.937
323111.772 3075832.709 0.933
323111.635 3075832.641 0.928
323111.505 3075832.582 0.922
323111.395 3075832.484 0.915
323111.337 3075832.374 0.910
323111.307 3075832.251 0.906
323111.304 3075832.161 0.903
323111.230 3075832.076 0.897
323111.092 3075832.003 0.887
323110.941 3075831.939 0.876
323110.810 3075831.863 0.867
323110.729 3075831.740 0.864
323110.684 3075831.609 0.861
323110.670 3075831.509 0.860
323110.636 3075831.400 0.857
323110.547 3075831.299 0.852
323110.431 3075831.201 0.845
323110.309 3075831.141 0.839
323110.193 3075831.049 0.833
323110.128 3075830.930 0.829
323110.092 3075830.794 0.827
323110.100 3075830.696 0.826
323110.000 3075830.587 0.824
323109.854 3075830.492 0.818
323109.704 3075830.400 0.808
323109.583 3075830.315 0.801
323109.496 3075830.192 0.796
323109.433 3075830.064 0.793
323109.415 3075829.960 0.792
323109.359 3075829.854 0.790
323109.242 3075829.768 0.787
323109.082 3075829.670 0.781
323108.947 3075829.591 0.776
323108.829 3075829.484 0.767
323108.744 3075829.354 0.756
323108.671 3075829.221 0.750
323108.643 3075829.105 0.749
323108.577 3075829.007 0.750
323108.491 3075828.940 0.749
323108.384 3075828.872 0.745
323108.266 3075828.790 0.736
323108.150 3075828.695 0.726
323108.067 3075828.586 0.722
323107.999 3075828.457 0.721
323108.053 3075828.386 0.721
323108.003 3075828.272 0.719
323107.882 3075828.145 0.710
323107.741 3075828.043 0.696
323107.622 3075827.949 0.686
323107.553 3075827.823 0.678
323107.549 3075827.702 0.674
323107.530 3075827.575 0.669
323107.506 3075827.455 0.664
323107.390 3075827.340 0.656
323107.257 3075827.275 0.650
323107.158 3075827.194 0.640
323107.036 3075827.105 0.626
323106.968 3075826.982 0.617
323106.942 3075826.860 0.613
323106.908 3075826.765 0.611
323106.788 3075826.666 0.609
323106.622 3075826.576 0.605
323106.467 3075826.520 0.599
323106.334 3075826.422 0.597
323106.193 3075826.289 0.600
323106.162 3075826.155 0.604
323106.121 3075826.048 0.607
323106.021 3075825.971 0.614
323105.885 3075825.888 0.625
323105.765 3075825.829 0.635
323105.669 3075825.746 0.641
323105.617 3075825.657 0.644
323105.590 3075825.571 0.644
323105.593 3075825.506 0.645
323105.619 3075825.471 0.645
323105.581 3075825.443 0.645
323105.541 3075825.442 0.645
323105.514 3075825.448 0.645
323105.566 3075825.386 0.645
323105.518 3075825.436 0.645
323105.537 3075825.406 0.645
323105.486 3075825.329 0.646
323105.361 3075825.265 0.650
323105.232 3075825.238 0.657
323105.151 3075825.169 0.663
323105.115 3075825.070 0.667
323105.104 3075824.968 0.669
323105.122 3075824.873 0.670
323105.104 3075824.806 0.671
323105.015 3075824.749 0.673
323104.893 3075824.673 0.676
323104.761 3075824.618 0.677
323104.636 3075824.522 0.679
323104.539 3075824.395 0.685
323104.555 3075824.282 0.687
323104.488 3075824.189 0.693
323104.353 3075824.085 0.706
323104.201 3075824.021 0.718
323104.050 3075823.913 0.724
323103.976 3075823.769 0.727
323103.964 3075823.630 0.726
323103.913 3075823.509 0.722
323103.778 3075823.395 0.707
323103.614 3075823.320 0.685
323103.481 3075823.252 0.663
323103.414 3075823.136 0.647
323103.366 3075823.016 0.634
323103.334 3075822.905 0.622
323103.220 3075822.812 0.606
323103.072 3075822.757 0.593
323102.961 3075822.755 0.585
323102.871 3075822.735 0.576
323102.811 3075822.668 0.567
323102.777 3075822.571 0.557
323102.788 3075822.470 0.550
323102.784 3075822.386 0.543
323102.687 3075822.322 0.528
323102.548 3075822.291 0.513
323102.421 3075822.305 0.504
323102.304 3075822.292 0.495
323102.223 3075822.237 0.487
323102.182 3075822.160 0.480
323102.182 3075822.079 0.475
323102.166 3075821.995 0.468
323102.099 3075821.916 0.456
323102.044 3075821.868 0.446
323101.944 3075821.808 0.430
323101.836 3075821.726 0.411
323101.737 3075821.639 0.397
323101.674 3075821.541 0.387
323101.633 3075821.429 0.380
323101.591 3075821.317 0.374
323101.547 3075821.201 0.368
323101.442 3075821.103 0.359
323101.300 3075821.005 0.347
323101.179 3075820.915 0.336
323101.062 3075820.817 0.325
323100.984 3075820.693 0.314
323100.906 3075820.541 0.304
323100.877 3075820.420 0.299
323100.784 3075820.291 0.294
323100.654 3075820.184 0.286
323100.514 3075820.082 0.277
323100.388 3075819.975 0.271
323100.284 3075819.846 0.266
323100.200 3075819.710 0.260
323100.180 3075819.586 0.257
323100.105 3075819.454 0.253
323099.990 3075819.348 0.246
323099.850 3075819.220 0.235
323099.710 3075819.119 0.228
323099.589 3075818.995 0.221
323099.501 3075818.859 0.213
323099.445 3075818.729 0.209
323099.387 3075818.610 0.207
323099.283 3075818.503 0.205
323099.155 3075818.418 0.199
323099.004 3075818.320 0.188
323098.864 3075818.228 0.181
323098.760 3075818.106 0.174
323098.680 3075817.966 0.167
323098.644 3075817.845 0.163
323098.568 3075817.720 0.160
323098.457 3075817.622 0.156
323098.314 3075817.518 0.148
323098.177 3075817.428 0.140
323098.061 3075817.328 0.133
323097.982 3075817.212 0.126
323097.897 3075817.077 0.118
323097.875 3075816.961 0.113
323097.794 3075816.853 0.106
323097.696 3075816.789 0.100
323097.559 3075816.718 0.090
323097.426 3075816.667 0.080
323097.311 3075816.578 0.069
323097.245 3075816.459 0.062
323097.196 3075816.332 0.057
323097.197 3075816.250 0.056
323097.109 3075816.165 0.052
323096.986 3075816.124 0.048
323096.861 3075816.088 0.042
323096.710 3075816.031 0.027
323096.625 3075815.931 0.015
323096.552 3075815.804 0.006
323096.572 3075815.741 0.005
323096.463 3075815.664 -0.002
323096.297 3075815.624 -0.007
323096.123 3075815.608 -0.013
323095.971 3075815.603 -0.020
323095.856 3075815.546 -0.027
323095.770 3075815.457 -0.033
323095.761 3075815.394 -0.035
323095.662 3075815.344 -0.039
323095.522 3075815.319 -0.043
323095.359 3075815.312 -0.047
323095.218 3075815.311 -0.051
323095.099 3075815.275 -0.055
323095.028 3075815.213 -0.057
323095.022 3075815.131 -0.059
323095.012 3075815.068 -0.060
323094.890 3075815.013 -0.062
323094.723 3075814.981 -0.063
323094.578 3075814.988 -0.064
323094.451 3075814.961 -0.066
323094.374 3075814.905 -0.069
323094.357 3075814.825 -0.073
323094.338 3075814.767 -0.076
323094.235 3075814.725 -0.083
323094.123 3075814.733 -0.088
323094.009 3075814.740 -0.093
323093.918 3075814.775 -0.095
323093.872 3075814.777 -0.097
323093.876 3075814.726 -0.098
323093.906 3075814.678 -0.098
323093.854 3075814.532 -0.105
323093.769 3075814.410 -0.114
323093.710 3075814.267 -0.123
323093.682 3075814.117 -0.125
323093.703 3075813.971 -0.125
323093.740 3075813.852 -0.125
323093.696 3075813.726 -0.123
323093.600 3075813.605 -0.117
323093.498 3075813.507 -0.109
323093.393 3075813.391 -0.106
323093.316 3075813.241 -0.104
323093.286 3075813.100 -0.103
323093.297 3075812.996 -0.101
323093.245 3075812.890 -0.099
323093.109 3075812.817 -0.093
323092.951 3075812.747 -0.088
323092.823 3075812.681 -0.087
323092.735 3075812.568 -0.086
323092.682 3075812.420 -0.083
323092.654 3075812.294 -0.081
323092.517 3075812.158 -0.076
323092.345 3075812.047 -0.072
323092.218 3075811.966 -0.073
323092.129 3075811.851 -0.076
323092.085 3075811.718 -0.080
323092.109 3075811.605 -0.082
323092.077 3075811.503 -0.085
323091.968 3075811.415 -0.088
323091.848 3075811.370 -0.087
323091.742 3075811.336 -0.085
323091.643 3075811.315 -0.085
323091.579 3075811.293 -0.086
323091.538 3075811.247 -0.086
323091.516 3075811.166 -0.087
323091.539 3075811.049 -0.088
323091.590 3075810.938 -0.089
323091.575 3075810.807 -0.093
323091.474 3075810.672 -0.101
323091.354 3075810.560 -0.109
323091.246 3075810.448 -0.119
323091.168 3075810.283 -0.130
323091.142 3075810.120 -0.136
323091.140 3075809.995 -0.140
323091.073 3075809.860 -0.145
323090.969 3075809.702 -0.151
323090.843 3075809.620 -0.161
323090.787 3075809.486 -0.168
323090.792 3075809.324 -0.174
323090.830 3075809.165 -0.178
323090.855 3075809.043 -0.182
323090.798 3075808.900 -0.190
323090.719 3075808.800 -0.196
323090.679 3075808.732 -0.198
323090.670 3075808.613 -0.199
323090.701 3075808.489 -0.200
323090.738 3075808.386 -0.200
323090.722 3075808.271 -0.202
323090.634 3075808.176 -0.204
323090.502 3075808.096 -0.207
323090.390 3075808.077 -0.212
323090.319 3075807.960 -0.222
323090.274 3075807.828 -0.231
323090.256 3075807.697 -0.238
323090.209 3075807.567 -0.245
323090.085 3075807.469 -0.253
323089.924 3075807.380 -0.259
323089.761 3075807.323 -0.263
323089.630 3075807.230 -0.271
323089.546 3075807.105 -0.283
323089.476 3075806.951 -0.296
323089.457 3075806.836 -0.302
323089.325 3075806.734 -0.309
323089.149 3075806.629 -0.314
323088.986 3075806.600 -0.316
323088.869 3075806.495 -0.320
323088.792 3075806.360 -0.324
323088.773 3075806.238 -0.327
323088.681 3075806.138 -0.331
323088.548 3075806.047 -0.335
323088.411 3075805.997 -0.342
323088.306 3075805.968 -0.348
323088.250 3075805.881 -0.355
323088.220 3075805.774 -0.362
323088.261 3075805.653 -0.366
323088.255 3075805.538 -0.372
323088.150 3075805.430 -0.386
323088.026 3075805.355 -0.397
323087.870 3075805.346 -0.404
323087.768 3075805.281 -0.407
323087.557 3075805.525 -0.408
