322939.633 3076016.575 2.645
322939.630 3076016.572 2.644
322939.627 3076016.570 2.645
322939.626 3076016.565 2.649
322939.627 3076016.559 2.646
322939.631 3076016.560 2.646
322939.633 3076016.562 2.645
322939.631 3076016.561 2.647
322939.628 3076016.557 2.648
322939.623 3076016.551 2.647
322939.626 3076016.557 2.645
322939.634 3076016.565 2.649
322939.644 3076016.565 2.648
322939.652 3076016.570 2.647
322939.646 3076016.573 2.648
322939.637 3076016.568 2.647
322939.639 3076016.550 2.652
322939.843 3076016.319 2.662
322939.918 3076016.259 2.651
322939.947 3076016.207 2.649
322939.959 3076016.156 2.657
322939.947 3076016.146 2.658
322939.947 3076016.209 2.649
322939.920 3076016.237 2.648
322939.904 3076016.240 2.647
322939.888 3076016.262 2.646
322939.555 3076016.288 2.664
322939.560 3076016.346 2.666
322939.617 3076016.431 2.661
322940.273 3076016.584 2.633
322940.346 3076016.634 2.626
322940.387 3076016.644 2.637
322940.414 3076016.594 2.632
322940.396 3076016.509 2.638
322940.327 3076016.415 2.630
322940.242 3076016.343 2.630
322940.140 3076016.268 2.622
322940.046 3076016.213 2.610
322939.929 3076016.156 2.627
322939.835 3076016.086 2.626
322939.762 3076016.004 2.613
322939.718 3076015.916 2.625
322939.729 3076015.866 2.677
322939.739 3076015.801 2.692
322939.709 3076015.759 2.687
322939.654 3076015.726 2.675
322939.496 3076015.627 2.633
322939.340 3076015.618 2.668
322939.240 3076015.572 2.693
322939.165 3076015.503 2.687
322939.110 3076015.351 2.626
322939.051 3076015.194 2.618
322938.984 3076015.104 2.629
322938.917 3076015.062 2.624
322938.841 3076015.034 2.598
322938.702 3076015.031 2.572
322938.574 3076015.012 2.584
322938.481 3076014.978 2.579
322938.447 3076014.942 2.576
322938.387 3076014.877 2.550
322938.423 3076014.770 2.527
322938.402 3076014.684 2.519
322938.394 3076014.659 2.510
322938.354 3076014.662 2.497
322938.265 3076014.643 2.417
322938.025 3076014.543 2.343
322937.831 3076014.460 2.362
322937.731 3076014.415 2.389
322937.682 3076014.357 2.401
322937.688 3076014.281 2.385
322937.689 3076014.082 2.281
322937.735 3076013.933 2.283
322937.676 3076013.837 2.278
322937.557 3076013.811 2.281
322937.282 3076013.738 2.237
322937.050 3076013.754 2.292
322936.908 3076013.688 2.308
322936.871 3076013.630 2.303
322936.824 3076013.569 2.301
322936.766 3076013.521 2.307
322936.686 3076013.524 2.312
322936.627 3076013.593 2.324
322936.605 3076013.668 2.323
322936.614 3076013.773 2.341
322936.572 3076013.792 2.341
322936.512 3076013.755 2.342
322936.460 3076013.687 2.298
322936.455 3076013.592 2.284
322936.432 3076013.535 2.281
322936.374 3076013.513 2.272
322936.252 3076013.514 2.266
322936.142 3076013.548 2.262
322936.030 3076013.554 2.280
322935.968 3076013.504 2.272
322935.948 3076013.452 2.232
322935.928 3076013.363 2.199
322935.948 3076013.273 2.197
322935.865 3076013.134 2.162
322935.781 3076013.020 2.110
322935.608 3076012.890 2.089
322935.486 3076012.813 2.107
322935.448 3076012.728 2.117
322935.482 3076012.641 2.103
322935.497 3076012.512 2.070
322935.530 3076012.390 2.078
322935.489 3076012.256 2.079
322935.403 3076012.134 2.047
322935.317 3076012.069 2.031
322935.237 3076011.950 2.038
322935.223 3076011.833 2.027
322935.226 3076011.729 1.987
322935.186 3076011.596 1.999
322935.077 3076011.483 1.995
322934.896 3076011.359 1.944
322934.731 3076011.272 1.969
322934.622 3076011.165 1.980
322934.576 3076011.052 1.960
322934.542 3076010.897 1.896
322934.541 3076010.771 1.900
322934.469 3076010.685 1.905
322934.345 3076010.560 1.861
322934.157 3076010.415 1.826
322934.033 3076010.284 1.860
322933.982 3076010.172 1.860
322933.948 3076010.060 1.820
322933.921 3076009.938 1.849
322933.845 3076009.810 1.800
322933.688 3076009.700 1.733
322933.568 3076009.604 1.734
322933.510 3076009.482 1.731
322933.538 3076009.417 1.661
322933.466 3076009.252 1.669
322933.325 3076009.037 1.593
322933.160 3076008.916 1.533
322933.052 3076008.750 1.532
322932.998 3076008.550 1.495
322932.912 3076008.358 1.505
322932.715 3076008.177 1.489
322932.473 3076008.054 1.455
322932.280 3076007.941 1.482
322932.151 3076007.822 1.486
322932.035 3076007.694 1.458
322931.956 3076007.576 1.481
322931.794 3076007.483 1.501
322931.623 3076007.428 1.483
322931.460 3076007.371 1.475
322931.326 3076007.315 1.488
322931.231 3076007.215 1.477
322931.135 3076007.088 1.458
322931.121 3076007.018 1.477
322931.056 3076006.932 1.490
322930.964 3076006.872 1.493
322930.868 3076006.806 1.476
322930.736 3076006.705 1.436
322930.583 3076006.621 1.458
322930.450 3076006.509 1.460
322930.369 3076006.375 1.434
322930.355 3076006.268 1.429
322930.336 3076006.181 1.443
322930.238 3076006.092 1.450
322930.095 3076006.031 1.456
322929.938 3076005.951 1.412
322929.790 3076005.868 1.437
322929.681 3076005.754 1.434
322929.587 3076005.623 1.420
322929.555 3076005.537 1.421
322929.487 3076005.435 1.433
322929.368 3076005.339 1.430
322929.225 3076005.258 1.416
322929.093 3076005.162 1.399
322928.968 3076005.052 1.420
322928.914 3076004.937 1.400
322928.844 3076004.807 1.371
322928.810 3076004.699 1.384
322928.681 3076004.574 1.392
322928.543 3076004.485 1.393
322928.383 3076004.362 1.338
322928.226 3076004.257 1.361
322928.125 3076004.139 1.347
322928.050 3076004.010 1.316
322928.010 3076003.908 1.311
322927.887 3076003.784 1.340
322927.760 3076003.694 1.330
322927.598 3076003.550 1.279
322927.431 3076003.406 1.282
322927.298 3076003.263 1.283
322927.228 3076003.127 1.278
322927.184 3076003.011 1.229
322927.079 3076002.865 1.254
322926.940 3076002.742 1.248
322926.787 3076002.623 1.220
322926.621 3076002.506 1.199
322926.467 3076002.360 1.212
322926.359 3076002.210 1.206
322926.297 3076002.080 1.157
322926.186 3076001.940 1.181
322926.045 3076001.832 1.173
322925.888 3076001.707 1.146
322925.708 3076001.596 1.125
322925.560 3076001.433 1.126
322925.473 3076001.272 1.120
322925.443 3076001.167 1.090
322925.300 3076000.991 1.116
322925.117 3076000.841 1.107
322924.952 3076000.744 1.065
322924.812 3076000.624 1.095
322924.720 3076000.477 1.091
322924.630 3076000.304 1.049
322924.551 3076000.184 1.082
322924.414 3076000.038 1.075
322924.262 3075999.871 1.033
322924.119 3075999.747 1.035
322923.999 3075999.581 1.040
322923.907 3075999.407 1.022
322923.875 3075999.274 0.990
322923.747 3075999.104 1.012
322923.597 3075998.965 1.007
322923.453 3075998.830 0.938
322923.302 3075998.683 0.973
322923.201 3075998.528 0.972
322923.120 3075998.370 0.921
322923.049 3075998.233 0.943
322922.894 3075998.071 0.946
322922.738 3075997.921 0.930
322922.582 3075997.811 0.903
322922.444 3075997.647 0.924
322922.365 3075997.475 0.900
322922.325 3075997.331 0.880
322922.288 3075997.206 0.905
322922.207 3075997.081 0.907
322922.086 3075996.924 0.881
322921.952 3075996.807 0.886
322921.850 3075996.639 0.901
322921.816 3075996.476 0.886
322921.769 3075996.303 0.844
322921.734 3075996.146 0.870
322921.632 3075996.008 0.865
322921.481 3075995.846 0.819
322921.347 3075995.731 0.843
322921.238 3075995.574 0.855
322921.154 3075995.390 0.823
322921.144 3075995.261 0.823
322921.056 3075995.104 0.842
322920.938 3075994.976 0.841
322920.810 3075994.821 0.803
322920.685 3075994.671 0.834
322920.594 3075994.504 0.830
322920.533 3075994.313 0.804
322920.539 3075994.189 0.804
322920.465 3075994.047 0.824
322920.348 3075993.938 0.817
322920.169 3075993.775 0.763
322920.006 3075993.650 0.790
322919.873 3075993.488 0.792
322919.751 3075993.298 0.749
322919.744 3075993.170 0.764
322919.654 3075993.045 0.780
322919.534 3075992.958 0.777
322919.368 3075992.818 0.733
322919.195 3075992.732 0.735
322919.045 3075992.587 0.746
322918.968 3075992.446 0.730
322918.897 3075992.322 0.696
322918.820 3075992.201 0.712
322918.704 3075992.093 0.719
322918.556 3075992.005 0.709
322918.401 3075991.898 0.658
322918.254 3075991.805 0.693
322918.150 3075991.672 0.687
322918.077 3075991.528 0.668
322918.035 3075991.386 0.649
322917.965 3075991.254 0.666
322917.853 3075991.154 0.656
322917.696 3075991.055 0.640
322917.540 3075990.949 0.608
322917.391 3075990.835 0.631
322917.311 3075990.713 0.619
322917.229 3075990.567 0.575
322917.187 3075990.444 0.589
322917.032 3075990.319 0.589
322916.826 3075990.165 0.554
322916.648 3075990.042 0.523
322916.487 3075989.900 0.541
322916.343 3075989.718 0.509
322916.232 3075989.572 0.539
322916.088 3075989.431 0.561
322915.902 3075989.268 0.522
322915.735 3075989.148 0.543
322915.583 3075988.988 0.562
322915.443 3075988.804 0.528
322915.325 3075988.656 0.551
322915.165 3075988.492 0.564
322914.987 3075988.344 0.544
322914.849 3075988.242 0.536
322914.690 3075988.095 0.561
322914.547 3075987.904 0.547
322914.479 3075987.786 0.534
322914.340 3075987.610 0.559
322914.169 3075987.478 0.557
322914.033 3075987.345 0.505
322913.867 3075987.199 0.539
322913.749 3075987.039 0.526
322913.639 3075986.875 0.489
322913.523 3075986.728 0.506
322913.361 3075986.583 0.516
322913.196 3075986.419 0.481
322913.040 3075986.295 0.472
322912.892 3075986.130 0.480
322912.764 3075985.943 0.452
322912.685 3075985.812 0.439
322912.534 3075985.650 0.463
322912.325 3075985.521 0.461
322912.160 3075985.391 0.395
322911.957 3075985.245 0.428
322911.820 3075985.077 0.416
322911.712 3075984.950 0.382
322911.566 3075984.785 0.409
322911.367 3075984.668 0.403
322911.182 3075984.528 0.339
322910.986 3075984.394 0.358
322910.828 3075984.246 0.353
322910.714 3075984.102 0.312
322910.549 3075983.951 0.327
322910.359 3075983.831 0.330
322910.173 3075983.696 0.292
322909.980 3075983.586 0.292
322909.811 3075983.444 0.298
322909.663 3075983.300 0.264
322909.545 3075983.172 0.273
322909.388 3075983.037 0.283
322909.224 3075982.926 0.278
322909.056 3075982.789 0.206
322908.874 3075982.633 0.231
322908.740 3075982.461 0.218
322908.675 3075982.304 0.168
322908.584 3075982.145 0.186
322908.454 3075981.996 0.198
322908.295 3075981.817 0.159
322908.126 3075981.673 0.157
322907.988 3075981.509 0.171
322907.874 3075981.342 0.154
322907.802 3075981.191 0.121
322907.665 3075981.037 0.143
322907.527 3075980.922 0.139
322907.378 3075980.770 0.081
322907.220 3075980.636 0.092
322907.093 3075980.490 0.101
322906.988 3075980.333 0.078
322906.909 3075980.197 0.055
322906.769 3075980.056 0.077
322906.612 3075979.960 0.075
322906.438 3075979.831 0.022
322906.250 3075979.708 0.040
322906.103 3075979.577 0.030
322905.985 3075979.442 0.008
322905.902 3075979.317 0.010
322905.766 3075979.184 0.021
322905.611 3075979.074 0.011
322905.452 3075978.948 -0.045
322905.279 3075978.815 -0.022
322905.155 3075978.664 -0.029
322905.063 3075978.512 -0.061
322904.957 3075978.365 -0.038
322904.808 3075978.224 -0.032
322904.644 3075978.072 -0.067
322904.483 3075977.936 -0.062
322904.340 3075977.775 -0.053
322904.213 3075977.594 -0.066
322904.165 3075977.467 -0.066
322904.036 3075977.300 -0.040
322903.872 3075977.153 -0.061
322903.723 3075977.014 -0.097
322903.552 3075976.854 -0.075
322903.447 3075976.680 -0.089
322903.370 3075976.525 -0.121
322903.235 3075976.349 -0.093
322903.059 3075976.230 -0.086
322902.896 3075976.099 -0.130
322902.717 3075975.955 -0.111
322902.577 3075975.800 -0.122
322902.465 3075975.639 -0.153
322902.385 3075975.495 -0.151
322902.245 3075975.360 -0.147
322902.059 3075975.200 -0.168
322901.864 3075975.104 -0.184
322901.706 3075974.951 -0.166
322901.597 3075974.782 -0.176
322901.519 3075974.636 -0.204
322901.412 3075974.471 -0.184
322901.268 3075974.345 -0.185
322901.104 3075974.204 -0.214
322900.940 3075974.092 -0.222
322900.806 3075973.976 -0.213
322900.690 3075973.852 -0.230
322900.630 3075973.714 -0.264
322900.528 3075973.588 -0.257
322900.401 3075973.486 -0.254
322900.257 3075973.398 -0.258
322900.087 3075973.298 -0.301
322899.940 3075973.194 -0.276
322899.821 3075973.072 -0.278
322899.726 3075972.920 -0.303
322899.710 3075972.795 -0.318
322899.595 3075972.649 -0.298
322899.451 3075972.542 -0.297
322899.284 3075972.459 -0.323
322899.127 3075972.365 -0.337
322898.978 3075972.224 -0.325
322898.896 3075972.101 -0.338
322898.859 3075971.979 -0.388
322898.793 3075971.863 -0.370
322898.646 3075971.743 -0.347
322898.496 3075971.657 -0.370
322898.344 3075971.591 -0.399
322898.205 3075971.496 -0.378
322898.120 3075971.390 -0.387
322898.126 3075971.291 -0.384
322898.140 3075971.205 -0.435
322898.111 3075971.111 -0.437
322898.007 3075971.047 -0.432
322897.867 3075971.043 -0.429
322897.774 3075971.070 -0.434
322897.732 3075971.079 -0.437
322897.707 3075971.066 -0.440
322897.702 3075971.061 -0.437
322897.703 3075971.059 -0.440
322897.708 3075971.059 -0.446
322897.715 3075971.062 -0.448
322897.721 3075971.068 -0.446
322897.730 3075971.076 -0.445
322897.740 3075971.078 -0.444
322897.755 3075971.084 -0.445
