322830.805 3076109.421 2.161
322830.830 3076109.385 2.161
322830.809 3076109.403 2.161
322830.855 3076109.303 2.160
322830.771 3076109.066 2.148
322830.652 3076108.921 2.127
322830.591 3076108.802 2.115
322830.568 3076108.699 2.108
322830.561 3076108.614 2.102
322830.563 3076108.505 2.094
322830.602 3076108.431 2.092
322830.543 3076108.322 2.074
322830.392 3076108.174 2.027
322830.302 3076108.103 2.004
322830.257 3076107.999 1.990
322830.216 3076107.887 1.975
322830.247 3076107.794 1.970
322830.171 3076107.673 1.945
322830.081 3076107.521 1.909
322829.944 3076107.442 1.884
322829.879 3076107.303 1.872
322829.882 3076107.163 1.866
322829.850 3076107.006 1.854
322829.816 3076106.891 1.840
322829.758 3076106.796 1.823
322829.670 3076106.714 1.806
322829.575 3076106.723 1.798
322829.548 3076106.650 1.791
322829.547 3076106.489 1.780
322829.489 3076106.533 1.778
322829.527 3076106.367 1.768
322829.443 3076106.199 1.733
322829.331 3076106.069 1.690
322829.275 3076105.917 1.672
322829.281 3076105.771 1.666
322829.279 3076105.617 1.660
322829.283 3076105.478 1.656
322829.234 3076105.392 1.652
322829.162 3076105.350 1.648
322829.039 3076105.318 1.641
322828.964 3076105.315 1.638
322828.869 3076105.256 1.630
322828.826 3076105.176 1.625
322828.808 3076105.082 1.619
322828.828 3076105.032 1.618
322828.765 3076104.954 1.608
322828.663 3076104.870 1.587
322828.538 3076104.825 1.565
322828.473 3076104.739 1.548
322828.446 3076104.636 1.538
322828.499 3076104.567 1.538
322828.412 3076104.376 1.515
322828.270 3076104.214 1.498
322828.147 3076104.184 1.497
322828.028 3076104.082 1.491
322827.976 3076103.972 1.484
322827.918 3076103.808 1.475
322827.822 3076103.638 1.472
322827.679 3076103.513 1.466
322827.469 3076103.369 1.451
322827.287 3076103.256 1.454
322827.159 3076103.128 1.455
322827.008 3076103.011 1.449
322826.918 3076102.896 1.445
322826.775 3076102.797 1.439
322826.625 3076102.708 1.427
322826.418 3076102.649 1.416
322826.258 3076102.524 1.407
322826.165 3076102.369 1.397
322826.082 3076102.210 1.388
322825.996 3076102.061 1.383
322825.872 3076101.950 1.373
322825.689 3076101.815 1.348
322825.501 3076101.709 1.338
322825.366 3076101.563 1.330
322825.284 3076101.410 1.316
322825.227 3076101.256 1.305
322825.110 3076101.105 1.297
322824.964 3076100.997 1.286
322824.783 3076100.888 1.273
322824.608 3076100.789 1.269
322824.486 3076100.663 1.260
322824.402 3076100.503 1.245
322824.333 3076100.327 1.231
322824.193 3076100.177 1.218
322824.034 3076100.045 1.198
322823.848 3076099.942 1.187
322823.699 3076099.798 1.181
322823.602 3076099.639 1.168
322823.553 3076099.480 1.156
322823.440 3076099.291 1.143
322823.277 3076099.141 1.125
322823.080 3076099.007 1.105
322822.889 3076098.863 1.100
322822.770 3076098.705 1.089
322822.716 3076098.548 1.077
322822.596 3076098.372 1.064
322822.417 3076098.245 1.043
322822.271 3076098.155 1.028
322822.115 3076098.068 1.018
322822.004 3076097.939 1.009
322821.942 3076097.825 1.001
322821.899 3076097.698 0.991
322821.790 3076097.560 0.979
322821.643 3076097.460 0.966
322821.433 3076097.328 0.950
322821.266 3076097.239 0.947
322821.126 3076097.098 0.944
322821.019 3076096.948 0.933
322820.921 3076096.823 0.926
322820.783 3076096.665 0.926
322820.609 3076096.559 0.921
322820.438 3076096.452 0.910
322820.244 3076096.327 0.906
322820.109 3076096.167 0.898
322820.003 3076096.015 0.887
322819.873 3076095.866 0.884
322819.720 3076095.739 0.882
322819.546 3076095.602 0.866
322819.375 3076095.491 0.854
322819.216 3076095.336 0.845
322819.085 3076095.162 0.837
322819.013 3076095.034 0.837
322818.871 3076094.872 0.843
322818.709 3076094.743 0.838
322818.545 3076094.601 0.822
322818.363 3076094.451 0.814
322818.232 3076094.291 0.803
322818.152 3076094.148 0.793
322818.029 3076093.986 0.790
322817.868 3076093.838 0.781
322817.688 3076093.691 0.752
322817.495 3076093.550 0.740
322817.349 3076093.390 0.738
322817.224 3076093.219 0.728
322817.162 3076093.067 0.723
322817.021 3076092.886 0.719
322816.864 3076092.724 0.703
322816.710 3076092.589 0.685
322816.556 3076092.416 0.676
322816.416 3076092.228 0.664
322816.255 3076092.052 0.649
322816.084 3076091.882 0.644
322815.854 3076091.711 0.631
322815.656 3076091.590 0.628
322815.503 3076091.431 0.629
322815.369 3076091.244 0.634
322815.240 3076091.082 0.652
322815.042 3076090.937 0.666
322814.860 3076090.777 0.660
322814.682 3076090.642 0.668
322814.534 3076090.482 0.674
322814.415 3076090.333 0.678
322814.293 3076090.177 0.691
322814.152 3076090.061 0.702
322813.984 3076089.894 0.697
322813.827 3076089.786 0.698
322813.682 3076089.644 0.701
322813.592 3076089.509 0.694
322813.525 3076089.377 0.687
322813.432 3076089.223 0.680
322813.290 3076089.092 0.667
322813.118 3076088.963 0.635
322812.938 3076088.867 0.611
322812.775 3076088.710 0.597
322812.695 3076088.553 0.585
322812.609 3076088.419 0.573
322812.469 3076088.241 0.558
322812.311 3076088.108 0.537
322812.142 3076087.977 0.512
322811.961 3076087.851 0.501
322811.825 3076087.712 0.492
322811.719 3076087.581 0.478
322811.635 3076087.451 0.466
322811.491 3076087.293 0.454
322811.311 3076087.174 0.435
322811.148 3076087.055 0.411
322810.972 3076086.942 0.394
322810.829 3076086.798 0.382
322810.670 3076086.638 0.362
322810.542 3076086.514 0.354
322810.393 3076086.381 0.352
322810.194 3076086.258 0.340
322810.051 3076086.163 0.330
322809.881 3076086.027 0.324
322809.723 3076085.860 0.314
322809.598 3076085.728 0.307
322809.431 3076085.568 0.310
322809.244 3076085.443 0.304
322809.107 3076085.312 0.292
322808.939 3076085.168 0.287
322808.776 3076084.998 0.275
322808.660 3076084.843 0.263
322808.524 3076084.689 0.262
322808.370 3076084.567 0.260
322808.231 3076084.398 0.249
322808.073 3076084.264 0.241
322807.933 3076084.097 0.235
322807.799 3076083.912 0.221
322807.723 3076083.787 0.215
322807.582 3076083.622 0.216
322807.422 3076083.469 0.209
322807.290 3076083.326 0.196
322807.156 3076083.157 0.186
322807.038 3076082.989 0.172
322806.934 3076082.827 0.159
322806.812 3076082.658 0.155
322806.641 3076082.511 0.151
322806.494 3076082.358 0.139
322806.346 3076082.253 0.133
322806.191 3076082.088 0.128
322806.045 3076081.926 0.118
322805.934 3076081.792 0.111
322805.782 3076081.621 0.106
322805.608 3076081.452 0.089
322805.460 3076081.326 0.074
322805.301 3076081.167 0.067
322805.159 3076080.994 0.055
322805.053 3076080.843 0.044
322804.904 3076080.675 0.040
322804.739 3076080.540 0.029
322804.589 3076080.393 0.009
322804.421 3076080.261 0.002
322804.244 3076080.087 -0.006
322804.109 3076079.927 -0.016
322803.981 3076079.753 -0.013
322803.781 3076079.585 -0.013
322803.582 3076079.444 -0.028
322803.360 3076079.256 -0.028
322803.172 3076079.053 -0.038
322803.091 3076078.898 -0.042
322802.930 3076078.723 -0.040
322802.783 3076078.576 -0.042
322802.625 3076078.452 -0.046
322802.467 3076078.307 -0.044
322802.331 3076078.139 -0.053
322802.243 3076077.957 -0.063
322802.146 3076077.788 -0.064
322802.017 3076077.637 -0.067
322801.870 3076077.477 -0.077
322801.715 3076077.368 -0.079
322801.580 3076077.201 -0.081
322801.458 3076077.021 -0.092
322801.399 3076076.862 -0.097
322801.269 3076076.693 -0.098
322801.122 3076076.573 -0.105
322800.937 3076076.450 -0.118
322800.752 3076076.323 -0.121
322800.620 3076076.165 -0.128
322800.558 3076075.980 -0.137
322800.459 3076075.797 -0.139
322800.313 3076075.655 -0.142
322800.134 3076075.495 -0.161
322799.963 3076075.363 -0.172
322799.831 3076075.223 -0.180
322799.743 3076075.075 -0.188
322799.700 3076074.915 -0.193
322799.589 3076074.761 -0.199
322799.468 3076074.661 -0.209
322799.303 3076074.517 -0.228
322799.112 3076074.379 -0.232
322798.985 3076074.209 -0.238
322798.886 3076074.017 -0.259
322798.841 3076073.858 -0.270
322798.739 3076073.679 -0.282
322798.589 3076073.553 -0.298
322798.433 3076073.432 -0.313
322798.278 3076073.319 -0.317
322798.163 3076073.160 -0.321
322798.111 3076072.993 -0.327
322798.024 3076072.839 -0.331
322797.897 3076072.708 -0.330
322797.713 3076072.588 -0.342
322797.519 3076072.509 -0.361
322797.374 3076072.453 -0.371
322797.285 3076072.335 -0.379
322797.277 3076072.199 -0.382
322797.243 3076072.076 -0.386
322797.147 3076071.980 -0.392
322797.025 3076071.926 -0.404
322796.899 3076071.905 -0.412
322796.778 3076071.893 -0.416
322796.688 3076071.870 -0.418
322796.639 3076071.838 -0.419
322796.658 3076071.792 -0.419
322796.639 3076071.811 -0.419
322796.668 3076071.775 -0.419
322796.673 3076071.767 -0.419
322796.670 3076071.758 -0.419
322796.663 3076071.749 -0.420
322796.632 3076071.753 -0.420
322796.622 3076071.753 -0.420
322796.747 3076071.588 -0.420
322796.606 3076071.756 -0.420
322796.610 3076071.750 -0.420
322796.681 3076071.650 -0.420
322796.758 3076071.503 -0.421
322796.739 3076071.461 -0.421
322796.713 3076071.451 -0.421
322796.692 3076071.452 -0.421
322796.661 3076071.447 -0.422
322796.609 3076071.496 -0.422
322796.606 3076071.490 -0.422
322796.606 3076071.485 -0.422
322796.603 3076071.480 -0.422
322796.601 3076071.474 -0.422
322796.630 3076071.438 -0.422
322796.620 3076071.442 -0.422
322796.597 3076071.462 -0.422
322796.611 3076071.444 -0.422
322796.602 3076071.452 -0.422
