322900.593 3076046.505 2.447
322900.595 3076046.499 2.447
322900.599 3076046.493 2.454
322900.595 3076046.491 2.452
322900.592 3076046.489 2.456
322900.584 3076046.488 2.456
322900.577 3076046.486 2.453
322900.576 3076046.485 2.456
322900.580 3076046.484 2.458
322900.583 3076046.486 2.464
322900.588 3076046.492 2.461
322900.579 3076046.477 2.462
322900.576 3076046.466 2.466
322900.586 3076046.459 2.472
322900.598 3076046.460 2.466
322900.608 3076046.461 2.462
322900.610 3076046.451 2.460
322900.610 3076046.429 2.466
322900.605 3076046.411 2.469
322900.630 3076046.434 2.456
322900.635 3076046.436 2.455
322900.656 3076046.488 2.447
322900.647 3076046.500 2.444
322900.634 3076046.498 2.443
322900.618 3076046.454 2.453
322900.687 3076046.454 2.422
322900.733 3076046.429 2.431
322900.737 3076046.409 2.430
322900.712 3076046.423 2.457
322900.732 3076046.398 2.474
322900.714 3076046.219 2.475
322900.595 3076045.952 2.488
322900.389 3076045.784 2.521
322900.241 3076045.673 2.518
322900.150 3076045.589 2.500
322900.112 3076045.505 2.501
322900.066 3076045.426 2.523
322899.964 3076045.369 2.515
322899.855 3076045.331 2.473
322899.737 3076045.295 2.489
322899.655 3076045.220 2.478
322899.609 3076045.116 2.453
322899.603 3076045.036 2.448
322899.512 3076044.931 2.454
322899.372 3076044.836 2.433
322899.263 3076044.732 2.397
322899.138 3076044.658 2.429
322899.062 3076044.557 2.426
322899.005 3076044.417 2.398
322898.931 3076044.337 2.452
322898.896 3076044.230 2.531
322898.876 3076044.170 2.555
322898.823 3076044.119 2.550
322898.739 3076044.096 2.546
322898.648 3076044.052 2.548
322898.593 3076044.016 2.570
322898.544 3076043.935 2.553
322898.507 3076043.845 2.563
322898.523 3076043.758 2.585
322898.582 3076043.686 2.578
322898.592 3076043.634 2.566
322898.544 3076043.601 2.574
322898.454 3076043.622 2.592
322898.299 3076043.603 2.579
322898.149 3076043.559 2.582
322898.031 3076043.495 2.586
322897.976 3076043.454 2.587
322897.963 3076043.405 2.576
322897.980 3076043.334 2.572
322898.035 3076043.279 2.576
322898.041 3076043.217 2.583
322897.977 3076043.150 2.580
322897.882 3076043.110 2.562
322897.777 3076043.111 2.495
322897.684 3076043.132 2.503
322897.614 3076043.105 2.520
322897.639 3076043.094 2.518
322897.633 3076043.017 2.424
322897.655 3076042.922 2.395
322897.603 3076042.827 2.398
322897.546 3076042.750 2.298
322897.399 3076042.671 2.201
322897.275 3076042.586 2.188
322897.154 3076042.523 2.211
322897.139 3076042.450 2.209
322897.156 3076042.382 2.176
322897.127 3076042.304 2.168
322897.003 3076042.219 2.178
322896.914 3076042.196 2.131
322896.908 3076042.163 2.139
322896.955 3076042.078 2.029
322896.843 3076041.922 1.993
322896.724 3076041.815 1.898
322896.608 3076041.742 1.896
322896.541 3076041.651 1.886
322896.462 3076041.514 1.823
322896.362 3076041.386 1.826
322896.212 3076041.281 1.831
322896.038 3076041.174 1.762
322895.916 3076041.129 1.763
322895.833 3076041.003 1.756
322895.828 3076040.921 1.735
322895.748 3076040.782 1.739
322895.632 3076040.662 1.703
322895.497 3076040.574 1.664
322895.347 3076040.507 1.646
322895.200 3076040.451 1.667
322895.123 3076040.370 1.647
322895.078 3076040.239 1.583
322895.064 3076040.121 1.563
322894.959 3076040.007 1.571
322894.841 3076039.904 1.550
322894.628 3076039.791 1.528
322894.468 3076039.634 1.548
322894.377 3076039.492 1.547
322894.318 3076039.350 1.500
322894.231 3076039.193 1.517
322894.099 3076039.043 1.522
322893.972 3076038.936 1.514
322893.825 3076038.799 1.498
322893.702 3076038.672 1.520
322893.637 3076038.541 1.511
322893.574 3076038.387 1.480
322893.558 3076038.250 1.476
322893.440 3076038.113 1.483
322893.298 3076037.997 1.463
322893.176 3076037.899 1.436
322893.078 3076037.811 1.457
322892.994 3076037.712 1.444
322892.895 3076037.567 1.404
322892.814 3076037.415 1.404
322892.683 3076037.270 1.410
322892.556 3076037.157 1.371
322892.398 3076037.010 1.340
322892.259 3076036.887 1.362
322892.183 3076036.755 1.349
322892.100 3076036.593 1.317
322892.047 3076036.456 1.323
322891.939 3076036.302 1.335
322891.806 3076036.198 1.319
322891.684 3076036.074 1.273
322891.526 3076035.952 1.277
322891.426 3076035.811 1.295
322891.371 3076035.668 1.265
322891.367 3076035.526 1.239
322891.261 3076035.348 1.266
322891.122 3076035.239 1.265
322890.971 3076035.091 1.201
322890.809 3076034.939 1.223
322890.718 3076034.803 1.218
322890.673 3076034.633 1.186
322890.629 3076034.480 1.193
322890.486 3076034.318 1.202
322890.311 3076034.187 1.153
322890.189 3076034.160 1.161
322890.043 3076034.057 1.164
322889.932 3076033.922 1.133
322889.818 3076033.778 1.120
322889.701 3076033.655 1.130
322889.574 3076033.564 1.125
322889.384 3076033.440 1.065
322889.232 3076033.329 1.081
322889.119 3076033.213 1.074
322889.047 3076033.090 1.048
322889.006 3076032.985 1.064
322888.870 3076032.854 1.074
322888.714 3076032.751 1.069
322888.515 3076032.641 1.021
322888.350 3076032.502 1.034
322888.254 3076032.367 1.024
322888.161 3076032.215 0.974
322888.071 3076032.079 0.983
322887.932 3076031.946 0.990
322887.771 3076031.846 0.992
322887.584 3076031.733 0.936
322887.422 3076031.602 0.957
322887.316 3076031.469 0.946
322887.223 3076031.322 0.911
322887.155 3076031.190 0.918
322887.048 3076031.082 0.936
322886.913 3076031.007 0.929
322886.752 3076030.901 0.883
322886.591 3076030.821 0.908
322886.469 3076030.714 0.908
322886.389 3076030.588 0.893
322886.347 3076030.472 0.883
322886.230 3076030.336 0.893
322886.074 3076030.231 0.881
322885.924 3076030.101 0.827
322885.770 3076029.985 0.862
322885.667 3076029.851 0.853
322885.593 3076029.705 0.820
322885.498 3076029.566 0.848
322885.358 3076029.432 0.845
322885.202 3076029.265 0.813
322885.058 3076029.135 0.820
322884.945 3076028.976 0.818
322884.854 3076028.801 0.795
322884.839 3076028.684 0.789
322884.732 3076028.520 0.809
322884.581 3076028.383 0.799
322884.433 3076028.254 0.756
322884.291 3076028.088 0.785
322884.228 3076027.930 0.790
322884.184 3076027.786 0.747
322884.124 3076027.622 0.787
322883.986 3076027.455 0.786
322883.856 3076027.294 0.740
322883.702 3076027.130 0.761
322883.585 3076026.967 0.749
322883.492 3076026.795 0.729
322883.488 3076026.679 0.730
322883.419 3076026.541 0.740
322883.309 3076026.436 0.734
322883.144 3076026.310 0.718
322882.998 3076026.209 0.694
322882.875 3076026.081 0.718
322882.821 3076025.938 0.693
322882.779 3076025.772 0.659
322882.754 3076025.641 0.680
322882.664 3076025.504 0.679
322882.532 3076025.351 0.652
322882.417 3076025.220 0.624
322882.305 3076025.061 0.646
322882.214 3076024.876 0.629
322882.165 3076024.728 0.614
322882.110 3076024.564 0.646
322882.000 3076024.447 0.659
322881.840 3076024.310 0.608
322881.675 3076024.195 0.658
322881.530 3076024.033 0.659
322881.425 3076023.861 0.630
322881.367 3076023.718 0.679
322881.250 3076023.579 0.693
322881.080 3076023.460 0.673
322880.925 3076023.369 0.680
322880.771 3076023.263 0.709
322880.637 3076023.135 0.693
322880.566 3076023.012 0.702
322880.464 3076022.885 0.737
322880.327 3076022.783 0.742
322880.158 3076022.666 0.713
322880.022 3076022.584 0.746
322879.886 3076022.464 0.762
322879.763 3076022.319 0.737
322879.696 3076022.195 0.748
322879.598 3076022.067 0.762
322879.462 3076021.981 0.761
322879.298 3076021.898 0.705
322879.166 3076021.835 0.739
322879.082 3076021.732 0.740
322879.042 3076021.609 0.660
322878.908 3076021.424 0.660
322878.742 3076021.280 0.656
322878.552 3076021.138 0.574
322878.383 3076021.037 0.572
322878.258 3076020.908 0.586
322878.156 3076020.766 0.507
322878.056 3076020.584 0.477
322877.918 3076020.427 0.492
322877.760 3076020.296 0.449
322877.577 3076020.169 0.378
322877.394 3076020.021 0.412
322877.272 3076019.888 0.409
322877.163 3076019.742 0.363
322877.033 3076019.580 0.362
322876.869 3076019.437 0.364
322876.652 3076019.309 0.343
322876.460 3076019.214 0.282
322876.280 3076019.085 0.303
322876.123 3076018.923 0.288
322876.031 3076018.804 0.256
322875.871 3076018.654 0.287
322875.687 3076018.555 0.284
322875.503 3076018.404 0.232
322875.318 3076018.272 0.249
322875.165 3076018.136 0.261
322875.038 3076017.992 0.223
322874.926 3076017.844 0.234
322874.771 3076017.711 0.243
322874.592 3076017.569 0.215
322874.416 3076017.433 0.184
322874.251 3076017.281 0.202
322874.117 3076017.116 0.185
322874.049 3076016.985 0.144
322873.926 3076016.833 0.168
322873.781 3076016.711 0.165
322873.644 3076016.567 0.118
322873.469 3076016.431 0.134
322873.318 3076016.275 0.133
322873.184 3076016.113 0.112
322873.104 3076015.976 0.104
322872.941 3076015.824 0.123
322872.772 3076015.702 0.107
322872.602 3076015.584 0.061
322872.423 3076015.445 0.085
322872.293 3076015.288 0.073
322872.203 3076015.152 0.034
322872.057 3076014.995 0.056
322871.887 3076014.878 0.058
322871.705 3076014.731 0.023
322871.528 3076014.619 0.019
322871.373 3076014.479 0.028
322871.237 3076014.317 0.003
322871.144 3076014.190 0.000
322870.984 3076014.034 0.019
322870.794 3076013.911 0.010
322870.641 3076013.790 -0.041
322870.458 3076013.633 -0.015
322870.321 3076013.460 -0.025
322870.239 3076013.316 -0.059
322870.109 3076013.138 -0.033
322869.929 3076012.989 -0.033
322869.771 3076012.828 -0.069
322869.615 3076012.678 -0.046
322869.491 3076012.518 -0.060
322869.386 3076012.347 -0.092
322869.274 3076012.200 -0.069
322869.130 3076012.061 -0.064
322868.962 3076011.908 -0.101
322868.818 3076011.781 -0.103
322868.675 3076011.629 -0.082
322868.554 3076011.472 -0.094
322868.465 3076011.330 -0.121
322868.327 3076011.177 -0.101
322868.191 3076011.077 -0.106
322868.054 3076010.940 -0.148
322867.899 3076010.824 -0.129
322867.765 3076010.679 -0.128
322867.651 3076010.515 -0.150
322867.557 3076010.387 -0.147
322867.418 3076010.232 -0.134
322867.250 3076010.073 -0.142
322867.112 3076009.960 -0.172
322866.948 3076009.797 -0.156
322866.831 3076009.613 -0.173
322866.741 3076009.460 -0.204
322866.624 3076009.298 -0.178
322866.472 3076009.160 -0.173
322866.342 3076009.030 -0.208
322866.190 3076008.899 -0.209
322866.057 3076008.746 -0.206
322865.980 3076008.596 -0.220
322865.925 3076008.459 -0.251
322865.799 3076008.295 -0.233
322865.647 3076008.173 -0.233
322865.464 3076008.041 -0.287
322865.287 3076007.906 -0.262
322865.154 3076007.757 -0.275
322865.064 3076007.607 -0.310
322864.999 3076007.485 -0.314
322864.887 3076007.371 -0.307
322864.756 3076007.284 -0.313
322864.583 3076007.174 -0.356
322864.417 3076007.037 -0.336
322864.329 3076006.895 -0.344
322864.258 3076006.739 -0.383
322864.197 3076006.596 -0.366
322864.057 3076006.451 -0.355
322863.899 3076006.330 -0.379
322863.759 3076006.232 -0.406
322863.641 3076006.079 -0.394
322863.588 3076005.926 -0.406
322863.552 3076005.778 -0.450
322863.494 3076005.655 -0.434
322863.375 3076005.534 -0.421
322863.289 3076005.478 -0.429
322863.180 3076005.450 -0.461
322863.037 3076005.383 -0.445
322862.952 3076005.314 -0.446
322862.934 3076005.259 -0.460
322862.915 3076005.210 -0.476
322862.902 3076005.174 -0.481
322862.900 3076005.164 -0.479
322862.902 3076005.164 -0.479
322862.904 3076005.161 -0.483
322862.905 3076005.163 -0.484
