322954.650 3075997.562 2.581
322954.658 3075997.560 2.576
322954.663 3075997.558 2.580
322954.665 3075997.556 2.578
322954.662 3075997.544 2.586
322954.658 3075997.518 2.590
322954.646 3075997.482 2.598
322954.620 3075997.441 2.595
322954.593 3075997.386 2.605
322954.528 3075997.339 2.609
322954.423 3075997.322 2.571
322954.296 3075997.295 2.518
322954.140 3075997.231 2.536
322954.045 3075997.145 2.521
322954.039 3075997.055 2.498
322954.007 3075996.954 2.496
322953.934 3075996.859 2.478
322953.829 3075996.838 2.466
322953.704 3075996.807 2.416
322953.586 3075996.743 2.407
322953.483 3075996.687 2.424
322953.422 3075996.622 2.399
322953.427 3075996.551 2.316
322953.388 3075996.478 2.317
322953.338 3075996.386 2.350
322953.276 3075996.363 2.351
322953.211 3075996.363 2.338
322953.118 3075996.368 2.303
322953.020 3075996.341 2.274
322952.938 3075996.296 2.283
322952.881 3075996.238 2.278
322952.935 3075996.174 2.265
322952.925 3075996.106 2.262
322952.918 3075996.050 2.254
322952.904 3075996.018 2.254
322952.880 3075996.006 2.254
322952.849 3075996.021 2.243
322952.793 3075996.058 2.219
322952.715 3075996.101 2.186
322952.638 3075996.146 2.184
322952.584 3075996.177 2.188
322952.557 3075996.185 2.191
322952.531 3075996.184 2.191
322952.496 3075996.187 2.185
322952.472 3075996.162 2.190
322952.453 3075996.111 2.194
322952.492 3075996.017 2.178
322952.527 3075995.919 2.177
322952.549 3075995.821 2.202
322952.505 3075995.734 2.217
322952.448 3075995.701 2.212
322952.337 3075995.710 2.151
322952.201 3075995.627 2.085
322952.137 3075995.605 2.096
322952.153 3075995.599 2.079
322952.203 3075995.423 1.997
322952.223 3075995.365 2.011
322952.224 3075995.320 2.015
322952.198 3075995.310 2.012
322952.146 3075995.325 2.001
322952.081 3075995.337 1.984
322952.038 3075995.339 1.972
322951.990 3075995.333 1.973
322951.977 3075995.312 1.981
322951.991 3075995.276 1.988
322952.014 3075995.222 1.983
322952.049 3075995.153 1.980
322952.085 3075995.082 1.973
322952.098 3075995.011 1.983
322952.122 3075994.956 1.987
322952.130 3075994.903 1.993
322952.116 3075994.872 1.996
322952.063 3075994.859 1.989
322951.979 3075994.853 1.975
322951.893 3075994.836 1.964
322951.820 3075994.785 1.956
322951.713 3075994.744 1.886
322951.728 3075994.702 1.873
322951.757 3075994.614 1.884
322951.720 3075994.550 1.865
322951.623 3075994.537 1.756
322951.562 3075994.451 1.745
322951.513 3075994.385 1.739
322951.513 3075994.289 1.720
322951.565 3075994.196 1.654
322951.564 3075994.096 1.676
322951.558 3075994.037 1.676
322951.526 3075994.014 1.674
322951.460 3075994.031 1.665
322951.393 3075994.049 1.645
322951.329 3075994.029 1.639
322951.245 3075994.007 1.642
322951.151 3075993.964 1.618
322951.102 3075993.888 1.552
322950.977 3075993.814 1.568
322950.777 3075993.785 1.560
322950.594 3075993.837 1.528
322950.367 3075993.844 1.560
322950.193 3075993.836 1.558
322950.097 3075993.751 1.516
322950.009 3075993.675 1.504
322949.844 3075993.584 1.517
322949.689 3075993.534 1.491
322949.519 3075993.477 1.477
322949.306 3075993.365 1.502
322949.126 3075993.260 1.494
322949.128 3075993.149 1.473
322948.940 3075992.993 1.487
322948.779 3075992.871 1.486
322948.599 3075992.827 1.452
322948.370 3075992.686 1.471
322948.254 3075992.558 1.464
322948.257 3075992.438 1.440
322948.251 3075992.317 1.450
322948.211 3075992.150 1.463
322948.151 3075992.013 1.437
322948.113 3075991.809 1.451
322948.128 3075991.596 1.456
322948.225 3075991.480 1.437
322948.303 3075991.465 1.455
322948.396 3075991.394 1.466
322948.452 3075991.314 1.449
322948.446 3075991.240 1.433
322948.547 3075991.135 1.435
322948.676 3075991.095 1.433
322948.809 3075991.044 1.446
322948.912 3075990.985 1.460
322948.935 3075990.929 1.458
322948.772 3075990.816 1.462
322948.711 3075990.733 1.467
322948.664 3075990.622 1.461
322948.680 3075990.534 1.473
322948.677 3075990.408 1.482
322948.584 3075990.282 1.474
322948.453 3075990.276 1.475
322948.365 3075990.160 1.517
322948.293 3075990.063 1.512
322948.283 3075989.941 1.454
322948.239 3075989.816 1.422
322948.163 3075989.675 1.422
322948.028 3075989.577 1.365
322947.892 3075989.429 1.413
322947.771 3075989.324 1.398
322947.740 3075989.204 1.353
322947.658 3075989.075 1.371
322947.575 3075988.972 1.372
322947.453 3075988.883 1.347
322947.306 3075988.811 1.317
322947.170 3075988.711 1.348
322947.081 3075988.627 1.337
322947.029 3075988.529 1.318
322947.001 3075988.438 1.305
322946.882 3075988.328 1.329
322946.736 3075988.255 1.297
322946.576 3075988.201 1.277
322946.423 3075988.098 1.302
322946.324 3075987.982 1.288
322946.306 3075987.875 1.239
322946.178 3075987.749 1.263
322946.056 3075987.646 1.246
322945.907 3075987.576 1.215
322945.766 3075987.475 1.253
322945.676 3075987.377 1.260
322945.628 3075987.263 1.237
322945.598 3075987.165 1.197
322945.476 3075987.040 1.209
322945.337 3075986.936 1.184
322945.211 3075986.859 1.166
322945.075 3075986.740 1.200
322945.002 3075986.630 1.183
322944.973 3075986.524 1.129
322944.873 3075986.407 1.142
322944.767 3075986.303 1.145
322944.638 3075986.227 1.110
322944.504 3075986.135 1.129
322944.355 3075986.016 1.135
322944.265 3075985.888 1.110
322944.243 3075985.785 1.074
322944.103 3075985.642 1.097
322943.975 3075985.538 1.063
322943.838 3075985.454 1.038
322943.685 3075985.334 1.080
322943.587 3075985.222 1.061
322943.535 3075985.097 1.021
322943.431 3075984.980 1.037
322943.315 3075984.868 1.039
322943.187 3075984.778 1.002
322943.045 3075984.657 1.028
322942.907 3075984.542 1.031
322942.836 3075984.419 0.997
322942.757 3075984.292 1.000
322942.671 3075984.172 1.000
322942.550 3075984.072 0.939
322942.410 3075983.930 0.991
322942.282 3075983.819 0.987
322942.219 3075983.671 0.941
322942.162 3075983.531 0.944
322942.037 3075983.367 0.955
322941.898 3075983.228 0.913
322941.768 3075983.132 0.913
322941.627 3075982.990 0.917
322941.554 3075982.855 0.882
322941.507 3075982.730 0.874
322941.396 3075982.571 0.898
322941.274 3075982.454 0.870
322941.142 3075982.350 0.889
322940.978 3075982.237 0.902
322940.851 3075982.113 0.890
322940.786 3075982.000 0.849
322940.689 3075981.880 0.873
322940.560 3075981.769 0.851
322940.407 3075981.688 0.816
322940.253 3075981.569 0.863
322940.132 3075981.472 0.865
322940.100 3075981.350 0.833
322940.068 3075981.241 0.848
322939.977 3075981.107 0.864
322939.858 3075980.961 0.870
322939.735 3075980.859 0.847
322939.632 3075980.747 0.863
322939.525 3075980.625 0.862
322939.496 3075980.520 0.839
322939.508 3075980.452 0.800
322939.435 3075980.329 0.822
322939.333 3075980.229 0.812
322939.218 3075980.139 0.794
322939.087 3075980.043 0.821
322938.972 3075979.963 0.819
322938.902 3075979.863 0.791
322938.829 3075979.759 0.804
322938.736 3075979.655 0.810
322938.615 3075979.585 0.782
322938.474 3075979.531 0.780
322938.318 3075979.439 0.797
322938.228 3075979.330 0.789
322938.228 3075979.226 0.751
322938.158 3075979.089 0.773
322938.079 3075978.970 0.782
322937.965 3075978.879 0.742
322937.850 3075978.770 0.769
322937.733 3075978.661 0.771
322937.673 3075978.531 0.741
322937.647 3075978.437 0.728
322937.586 3075978.305 0.742
322937.491 3075978.186 0.728
322937.391 3075978.093 0.718
322937.246 3075977.980 0.743
322937.127 3075977.876 0.741
322937.045 3075977.757 0.711
322936.986 3075977.635 0.708
322936.879 3075977.513 0.719
322936.750 3075977.410 0.684
322936.621 3075977.316 0.690
322936.480 3075977.196 0.703
322936.405 3075977.070 0.681
322936.369 3075976.968 0.672
322936.267 3075976.842 0.676
322936.139 3075976.736 0.654
322935.996 3075976.653 0.641
322935.847 3075976.535 0.661
322935.743 3075976.431 0.649
322935.687 3075976.314 0.614
322935.593 3075976.182 0.625
322935.483 3075976.056 0.626
322935.351 3075975.964 0.590
322935.214 3075975.854 0.615
322935.077 3075975.750 0.623
322934.993 3075975.624 0.596
322934.949 3075975.518 0.583
322934.854 3075975.398 0.596
322934.738 3075975.296 0.572
322934.625 3075975.200 0.577
322934.483 3075975.086 0.601
322934.362 3075974.968 0.599
322934.311 3075974.849 0.568
322934.233 3075974.729 0.575
322934.135 3075974.615 0.572
322934.001 3075974.522 0.542
322933.871 3075974.414 0.563
322933.740 3075974.316 0.577
322933.654 3075974.209 0.553
322933.594 3075974.105 0.564
322933.509 3075973.989 0.572
322933.402 3075973.891 0.563
322933.267 3075973.826 0.549
322933.115 3075973.756 0.573
322932.982 3075973.699 0.580
322932.874 3075973.602 0.559
322932.836 3075973.512 0.538
322932.731 3075973.408 0.556
322932.607 3075973.329 0.543
322932.470 3075973.274 0.517
322932.312 3075973.204 0.533
322932.153 3075973.139 0.534
322932.038 3075973.036 0.510
322931.968 3075972.942 0.505
322931.852 3075972.833 0.519
322931.710 3075972.747 0.513
322931.576 3075972.679 0.516
322931.417 3075972.607 0.540
322931.278 3075972.532 0.542
322931.193 3075972.417 0.521
322931.165 3075972.324 0.495
322931.077 3075972.195 0.513
322930.978 3075972.072 0.511
322930.869 3075971.962 0.489
322930.764 3075971.835 0.533
322930.655 3075971.726 0.539
322930.572 3075971.602 0.537
322930.544 3075971.498 0.519
322930.478 3075971.375 0.532
322930.390 3075971.263 0.531
322930.271 3075971.173 0.505
322930.137 3075971.073 0.527
322930.016 3075970.996 0.532
322929.918 3075970.894 0.524
322929.856 3075970.773 0.491
322929.802 3075970.662 0.491
322929.690 3075970.546 0.494
322929.556 3075970.442 0.462
322929.434 3075970.335 0.484
322929.298 3075970.216 0.491
322929.223 3075970.082 0.473
322929.213 3075969.967 0.466
322929.147 3075969.825 0.475
322929.073 3075969.704 0.466
322928.964 3075969.610 0.436
322928.840 3075969.492 0.459
322928.709 3075969.377 0.464
322928.635 3075969.254 0.431
322928.578 3075969.135 0.430
322928.493 3075969.010 0.428
322928.372 3075968.901 0.399
322928.253 3075968.814 0.397
322928.110 3075968.702 0.413
322928.002 3075968.590 0.400
322927.933 3075968.482 0.368
322927.833 3075968.372 0.377
322927.717 3075968.275 0.367
322927.572 3075968.189 0.328
322927.414 3075968.092 0.360
322927.281 3075968.002 0.360
322927.197 3075967.880 0.340
322927.152 3075967.770 0.316
322927.057 3075967.637 0.333
322926.961 3075967.518 0.328
322926.830 3075967.409 0.297
322926.720 3075967.303 0.310
322926.608 3075967.212 0.319
322926.522 3075967.094 0.296
322926.474 3075966.979 0.264
322926.351 3075966.820 0.290
322926.219 3075966.685 0.291
322926.070 3075966.569 0.261
322925.925 3075966.441 0.280
322925.740 3075966.323 0.274
322925.626 3075966.191 0.226
322925.518 3075966.076 0.237
322925.371 3075965.936 0.231
322925.211 3075965.820 0.171
322925.060 3075965.692 0.221
322924.882 3075965.559 0.212
322924.773 3075965.424 0.173
322924.670 3075965.305 0.170
322924.553 3075965.164 0.162
322924.409 3075965.021 0.117
322924.262 3075964.864 0.152
322924.095 3075964.718 0.141
322923.970 3075964.563 0.093
322923.868 3075964.424 0.108
322923.753 3075964.276 0.109
322923.606 3075964.152 0.056
322923.483 3075964.009 0.088
322923.317 3075963.876 0.090
322923.202 3075963.747 0.046
322923.105 3075963.644 0.040
322922.977 3075963.503 0.041
322922.835 3075963.375 -0.002
322922.692 3075963.222 0.033
322922.505 3075963.081 0.034
322922.397 3075962.927 -0.005
322922.333 3075962.801 0.006
322922.256 3075962.660 0.004
322922.133 3075962.522 -0.027
322922.006 3075962.387 -0.005
322921.854 3075962.258 0.004
322921.752 3075962.125 -0.026
322921.667 3075962.003 -0.031
322921.543 3075961.858 -0.017
322921.403 3075961.738 -0.032
322921.266 3075961.640 -0.035
322921.078 3075961.530 -0.019
322920.943 3075961.408 -0.045
322920.895 3075961.288 -0.081
322920.767 3075961.140 -0.065
322920.648 3075961.010 -0.077
322920.509 3075960.885 -0.120
322920.358 3075960.729 -0.085
322920.203 3075960.597 -0.092
322920.121 3075960.444 -0.143
322920.038 3075960.291 -0.120
322919.929 3075960.138 -0.116
322919.791 3075960.010 -0.156
322919.649 3075959.885 -0.120
322919.491 3075959.761 -0.126
322919.393 3075959.635 -0.164
322919.298 3075959.518 -0.152
322919.174 3075959.406 -0.148
322919.023 3075959.311 -0.189
322918.881 3075959.207 -0.167
322918.727 3075959.113 -0.159
322918.627 3075958.998 -0.190
322918.567 3075958.900 -0.207
322918.448 3075958.767 -0.192
322918.310 3075958.668 -0.208
322918.165 3075958.580 -0.230
322918.018 3075958.468 -0.203
322917.862 3075958.351 -0.207
322917.787 3075958.211 -0.247
322917.711 3075958.076 -0.229
322917.615 3075957.947 -0.223
322917.475 3075957.839 -0.269
322917.327 3075957.732 -0.270
322917.171 3075957.604 -0.260
322917.054 3075957.476 -0.278
322917.025 3075957.362 -0.318
322916.895 3075957.227 -0.298
322916.750 3075957.132 -0.333
322916.575 3075957.020 -0.311
322916.408 3075956.908 -0.299
322916.303 3075956.794 -0.323
322916.311 3075956.711 -0.366
322916.224 3075956.580 -0.348
322916.136 3075956.469 -0.344
322916.019 3075956.366 -0.361
322915.889 3075956.271 -0.354
322915.765 3075956.163 -0.339
322915.684 3075956.060 -0.349
322915.660 3075955.955 -0.389
322915.570 3075955.819 -0.383
322915.475 3075955.694 -0.370
322915.362 3075955.583 -0.389
322915.245 3075955.430 -0.370
322915.121 3075955.265 -0.349
322915.142 3075955.159 -0.396
322915.160 3075955.038 -0.404
322915.165 3075954.910 -0.391
322915.122 3075954.820 -0.406
322915.022 3075954.747 -0.427
322914.920 3075954.674 -0.427
322914.844 3075954.588 -0.418
322914.860 3075954.489 -0.428
322914.918 3075954.407 -0.447
322914.926 3075954.302 -0.430
322914.910 3075954.220 -0.423
322914.841 3075954.153 -0.420
322914.733 3075954.103 -0.434
322914.624 3075954.035 -0.439
322914.533 3075953.970 -0.438
322914.496 3075953.904 -0.445
322914.512 3075953.853 -0.463
322914.517 3075953.791 -0.493
322914.476 3075953.693 -0.480
322914.390 3075953.609 -0.468
322914.273 3075953.584 -0.475
322914.166 3075953.543 -0.469
322914.106 3075953.497 -0.472
322914.123 3075953.457 -0.487
322914.174 3075953.396 -0.496
322914.165 3075953.332 -0.492
322913.974 3075953.271 -0.510
322913.883 3075953.217 -0.512
322913.769 3075953.074 -0.513
322913.775 3075953.040 -0.522
322913.813 3075953.039 -0.515
322913.902 3075952.975 -0.519
322913.982 3075952.896 -0.513
322914.037 3075952.808 -0.513
322914.121 3075952.753 -0.508
322914.146 3075952.772 -0.512
322914.152 3075953.169 -0.491
322914.291 3075953.240 -0.487
322914.227 3075953.262 -0.503
322914.165 3075953.288 -0.498
322914.105 3075953.342 -0.491
322914.093 3075953.355 -0.497
322914.110 3075953.364 -0.493
322914.154 3075953.345 -0.480
322914.121 3075953.332 -0.482
322914.055 3075953.308 -0.481
322914.044 3075953.304 -0.475
322914.049 3075953.300 -0.473
322914.053 3075953.296 -0.474
322914.061 3075953.286 -0.472
322914.067 3075953.272 -0.485
322914.060 3075953.263 -0.491
322914.054 3075953.262 -0.502
322914.052 3075953.266 -0.512
322914.048 3075953.265 -0.511
322914.043 3075953.256 -0.514
322914.046 3075953.255 -0.514
322914.044 3075953.260 -0.511
322914.040 3075953.261 -0.509
322914.035 3075953.258 -0.508
322914.035 3075953.256 -0.507
322914.037 3075953.252 -0.507
322914.042 3075953.248 -0.511
322914.046 3075953.253 -0.503
