322983.497 3075974.541 2.756
322983.494 3075974.543 2.756
322983.474 3075974.549 2.756
322983.454 3075974.530 2.756
322983.425 3075974.514 2.755
322983.374 3075974.487 2.754
322983.301 3075974.449 2.751
322983.233 3075974.448 2.750
322983.173 3075974.428 2.747
322983.084 3075974.368 2.744
322983.012 3075974.301 2.743
322982.972 3075974.207 2.744
322982.995 3075974.166 2.744
322982.991 3075974.090 2.745
322982.948 3075974.013 2.745
322982.883 3075973.941 2.743
322982.787 3075973.866 2.732
322982.704 3075973.753 2.709
322982.677 3075973.643 2.694
322982.694 3075973.563 2.689
322982.647 3075973.449 2.674
322982.562 3075973.368 2.660
322982.448 3075973.250 2.647
322982.315 3075973.151 2.641
322982.203 3075973.019 2.638
322982.125 3075972.920 2.637
322982.121 3075972.833 2.636
322982.125 3075972.753 2.636
322982.089 3075972.660 2.635
322982.030 3075972.586 2.632
322981.936 3075972.553 2.629
322981.854 3075972.496 2.624
322981.820 3075972.454 2.621
322981.839 3075972.422 2.621
322981.860 3075972.384 2.620
322981.858 3075972.342 2.618
322981.835 3075972.306 2.616
322981.783 3075972.261 2.610
322981.707 3075972.242 2.603
322981.578 3075972.196 2.589
322981.452 3075972.151 2.583
322981.353 3075972.131 2.585
322981.283 3075972.156 2.586
322981.259 3075972.164 2.587
322981.264 3075972.138 2.588
322981.264 3075972.089 2.589
322981.265 3075972.011 2.592
322981.262 3075971.909 2.597
322981.233 3075971.788 2.604
322981.245 3075971.688 2.608
322981.252 3075971.622 2.612
322981.218 3075971.559 2.617
322981.144 3075971.489 2.627
322981.049 3075971.412 2.641
322980.969 3075971.330 2.654
322980.899 3075971.268 2.660
322980.858 3075971.205 2.662
322980.849 3075971.124 2.661
322980.869 3075971.053 2.660
322980.813 3075970.978 2.656
322980.794 3075970.929 2.653
322980.769 3075970.882 2.649
322980.713 3075970.864 2.642
322980.640 3075970.822 2.630
322980.557 3075970.771 2.614
322980.478 3075970.729 2.601
322980.515 3075970.606 2.594
322980.466 3075970.664 2.594
322980.443 3075970.691 2.594
322980.497 3075970.512 2.585
322980.510 3075970.453 2.581
322980.537 3075970.402 2.580
322980.507 3075970.361 2.572
322980.452 3075970.312 2.557
322980.379 3075970.285 2.538
322980.240 3075970.320 2.508
322980.146 3075970.298 2.473
322980.107 3075970.240 2.445
322980.124 3075970.168 2.431
322980.105 3075970.104 2.407
322980.076 3075970.026 2.378
322980.020 3075969.986 2.350
322979.963 3075969.947 2.323
322979.902 3075969.887 2.291
322979.842 3075969.837 2.265
322979.802 3075969.770 2.241
322979.723 3075969.677 2.204
322979.665 3075969.619 2.180
322979.549 3075969.573 2.146
322979.479 3075969.506 2.121
322979.414 3075969.447 2.107
322979.370 3075969.376 2.099
322979.358 3075969.295 2.095
322979.371 3075969.250 2.094
322979.371 3075969.190 2.092
322979.364 3075969.151 2.091
322979.341 3075969.119 2.090
322979.287 3075969.144 2.089
322979.284 3075969.146 2.089
322979.267 3075969.156 2.089
322979.276 3075969.145 2.089
322979.260 3075969.162 2.089
322979.259 3075969.156 2.089
322979.253 3075969.163 2.089
322979.246 3075969.163 2.089
322979.225 3075969.154 2.088
322979.209 3075969.142 2.088
322979.175 3075969.162 2.088
322979.163 3075969.152 2.087
322979.148 3075969.147 2.087
322979.138 3075969.147 2.087
322979.134 3075969.143 2.086
322979.183 3075969.079 2.086
322979.132 3075969.132 2.086
322979.218 3075969.025 2.086
322979.144 3075969.110 2.086
322979.232 3075968.952 2.085
322979.237 3075968.885 2.083
322979.255 3075968.861 2.083
322979.225 3075968.822 2.078
322979.166 3075968.801 2.064
322979.045 3075968.798 2.024
322978.925 3075968.728 1.968
322978.833 3075968.676 1.946
322978.782 3075968.721 1.944
322978.777 3075968.717 1.943
322978.787 3075968.703 1.943
322978.774 3075968.715 1.942
322978.777 3075968.703 1.941
322978.792 3075968.684 1.941
322978.803 3075968.658 1.940
322978.769 3075968.676 1.937
322978.848 3075968.578 1.937
322978.896 3075968.494 1.933
322978.872 3075968.522 1.933
322978.858 3075968.538 1.933
322978.903 3075968.481 1.933
322978.830 3075968.551 1.931
322978.797 3075968.590 1.931
322978.732 3075968.649 1.928
322978.660 3075968.725 1.927
322978.792 3075968.562 1.926
322978.573 3075968.763 1.918
322978.560 3075968.731 1.910
322978.495 3075968.758 1.900
322978.423 3075968.788 1.888
322978.316 3075968.855 1.872
322978.228 3075968.921 1.859
322978.051 3075968.987 1.776
322977.970 3075969.015 1.729
322977.923 3075968.998 1.685
322977.862 3075968.996 1.657
322977.753 3075969.020 1.639
322977.625 3075969.050 1.630
322977.505 3075969.123 1.627
322977.352 3075969.244 1.625
322977.349 3075969.244 1.625
322977.347 3075969.246 1.625
322977.343 3075969.250 1.625
322977.346 3075969.242 1.625
322977.349 3075969.235 1.625
322977.345 3075969.238 1.625
322977.342 3075969.240 1.625
322977.345 3075969.235 1.625
322977.343 3075969.237 1.625
322977.317 3075969.266 1.625
322977.339 3075969.238 1.625
322977.308 3075969.261 1.624
322977.323 3075969.240 1.624
322977.324 3075969.238 1.624
322977.293 3075969.254 1.624
322977.280 3075969.205 1.622
322977.260 3075969.150 1.620
322977.277 3075969.083 1.619
322977.269 3075969.021 1.616
322977.252 3075968.950 1.611
322977.198 3075968.895 1.601
322977.155 3075968.884 1.594
322977.077 3075968.820 1.574
322977.030 3075968.766 1.564
322977.035 3075968.705 1.560
322977.085 3075968.643 1.560
322977.086 3075968.562 1.555
322977.079 3075968.504 1.551
322977.047 3075968.469 1.548
322976.997 3075968.451 1.545
322976.955 3075968.404 1.541
322976.903 3075968.363 1.538
322976.896 3075968.366 1.537
322976.905 3075968.341 1.537
322976.877 3075968.367 1.537
322976.908 3075968.319 1.536
322976.860 3075968.364 1.536
322976.854 3075968.278 1.533
322976.768 3075968.250 1.531
322976.660 3075968.182 1.527
322976.559 3075968.108 1.526
322976.492 3075968.046 1.526
322976.456 3075967.992 1.528
322976.406 3075967.889 1.530
322976.268 3075967.834 1.532
322976.066 3075967.789 1.535
322976.049 3075967.778 1.535
322976.003 3075967.814 1.535
322975.975 3075967.805 1.536
322975.946 3075967.803 1.537
322975.978 3075967.715 1.538
322975.895 3075967.706 1.540
322975.763 3075967.609 1.546
322975.689 3075967.506 1.548
322975.716 3075967.425 1.547
322975.659 3075967.310 1.540
322975.597 3075967.149 1.530
322976.292 3075966.190 1.525
322976.233 3075966.216 1.523
322976.299 3075966.137 1.523
322975.523 3075966.998 1.521
322976.268 3075966.095 1.521
322976.210 3075966.062 1.518
322975.489 3075966.805 1.514
322975.797 3075966.424 1.514
322975.941 3075966.217 1.513
322975.814 3075966.332 1.512
322975.866 3075966.256 1.511
322975.596 3075966.558 1.510
322976.096 3075965.942 1.510
322976.085 3075965.882 1.507
322976.091 3075965.805 1.504
322976.068 3075965.719 1.498
322976.002 3075965.590 1.486
322975.892 3075965.489 1.471
322975.789 3075965.416 1.465
322975.659 3075965.311 1.457
322975.595 3075965.183 1.453
322975.603 3075965.081 1.452
322975.521 3075964.923 1.449
322975.411 3075964.784 1.450
322975.295 3075964.711 1.450
322975.186 3075964.580 1.446
322975.085 3075964.469 1.440
322975.062 3075964.366 1.437
322975.009 3075964.259 1.431
322974.946 3075964.156 1.424
322974.827 3075964.054 1.416
322974.701 3075963.964 1.414
322974.577 3075963.857 1.416
322974.497 3075963.750 1.418
322974.485 3075963.638 1.418
322974.415 3075963.524 1.415
322974.350 3075963.437 1.411
322974.240 3075963.368 1.405
322974.119 3075963.296 1.400
322974.004 3075963.208 1.397
322973.908 3075963.120 1.399
322973.840 3075963.000 1.400
322973.748 3075962.873 1.396
322973.699 3075962.743 1.390
322973.585 3075962.628 1.381
322973.447 3075962.557 1.372
322973.269 3075962.428 1.359
322973.195 3075962.294 1.352
322973.133 3075962.165 1.346
322973.006 3075962.026 1.337
322972.852 3075961.930 1.333
322972.700 3075961.813 1.329
322972.541 3075961.703 1.318
322972.471 3075961.584 1.309
322972.429 3075961.479 1.302
322972.289 3075961.351 1.291
322972.142 3075961.255 1.288
322972.003 3075961.169 1.287
322971.845 3075961.055 1.283
322971.740 3075960.937 1.275
322971.694 3075960.814 1.269
322971.602 3075960.673 1.258
322971.487 3075960.536 1.246
322971.347 3075960.443 1.240
322971.217 3075960.303 1.239
322971.090 3075960.177 1.233
322971.037 3075960.048 1.225
322970.992 3075959.931 1.216
322970.860 3075959.773 1.198
322970.720 3075959.668 1.187
322970.572 3075959.561 1.181
322970.421 3075959.432 1.174
322970.351 3075959.299 1.169
322970.276 3075959.172 1.164
322970.150 3075959.039 1.156
322970.010 3075958.945 1.148
322969.866 3075958.848 1.141
322969.708 3075958.736 1.128
322969.609 3075958.619 1.118
322969.576 3075958.517 1.113
322969.444 3075958.372 1.101
322969.319 3075958.256 1.092
322969.192 3075958.168 1.086
322969.051 3075958.044 1.080
322968.936 3075957.935 1.073
322968.858 3075957.809 1.064
322968.760 3075957.678 1.053
322968.626 3075957.528 1.042
322968.482 3075957.409 1.035
322968.330 3075957.269 1.031
322968.177 3075957.146 1.019
322968.075 3075957.001 1.003
322967.987 3075956.863 0.991
322967.841 3075956.702 0.976
322967.690 3075956.567 0.962
322967.549 3075956.441 0.957
322967.371 3075956.285 0.951
322967.263 3075956.132 0.942
322967.142 3075955.999 0.937
322966.988 3075955.843 0.928
322966.814 3075955.725 0.917
322966.657 3075955.589 0.916
322966.479 3075955.450 0.907
322966.370 3075955.293 0.895
322966.263 3075955.156 0.887
322966.116 3075955.009 0.875
322965.962 3075954.888 0.867
322965.802 3075954.745 0.875
322965.640 3075954.598 0.877
322965.545 3075954.456 0.872
322965.433 3075954.313 0.869
322965.311 3075954.180 0.863
322965.155 3075954.056 0.856
322965.003 3075953.916 0.855
322964.832 3075953.790 0.845
322964.725 3075953.646 0.829
322964.622 3075953.523 0.818
322964.495 3075953.380 0.804
322964.345 3075953.259 0.791
322964.236 3075953.145 0.782
322964.094 3075953.037 0.771
322963.968 3075952.898 0.756
322963.884 3075952.781 0.747
322963.746 3075952.633 0.739
322963.603 3075952.523 0.734
322963.477 3075952.413 0.733
322963.318 3075952.298 0.729
322963.193 3075952.155 0.718
322963.112 3075952.039 0.710
322962.955 3075951.884 0.697
322962.800 3075951.761 0.687
322962.662 3075951.653 0.683
322962.504 3075951.490 0.681
322962.368 3075951.359 0.668
322962.256 3075951.230 0.654
322962.119 3075951.078 0.640
322961.978 3075950.942 0.628
322961.836 3075950.819 0.622
322961.634 3075950.651 0.626
322961.472 3075950.487 0.618
322961.397 3075950.343 0.612
322961.246 3075950.148 0.610
322961.105 3075949.999 0.607
322960.968 3075949.869 0.606
322960.795 3075949.702 0.607
322960.661 3075949.532 0.605
322960.591 3075949.384 0.607
322960.464 3075949.184 0.615
322960.326 3075949.025 0.624
322960.179 3075948.908 0.637
322960.026 3075948.776 0.656
322959.881 3075948.648 0.666
322959.783 3075948.494 0.675
322959.686 3075948.319 0.690
322959.623 3075948.177 0.700
322959.510 3075948.032 0.706
322959.361 3075947.938 0.714
322959.210 3075947.803 0.723
322959.088 3075947.688 0.724
322959.021 3075947.554 0.724
322958.938 3075947.410 0.729
322958.830 3075947.274 0.737
322958.692 3075947.149 0.746
322958.531 3075947.022 0.762
322958.391 3075946.901 0.766
322958.284 3075946.759 0.754
322958.270 3075946.647 0.746
322958.173 3075946.474 0.727
322958.092 3075946.347 0.711
322957.920 3075946.244 0.684
322957.736 3075946.129 0.653
322957.547 3075945.973 0.610
322957.442 3075945.827 0.583
322957.321 3075945.698 0.555
322957.146 3075945.571 0.513
322956.981 3075945.434 0.475
322956.797 3075945.269 0.446
322956.684 3075945.088 0.423
322956.595 3075944.947 0.405
322956.453 3075944.792 0.380
322956.286 3075944.667 0.359
322956.122 3075944.516 0.347
322955.981 3075944.359 0.333
322955.897 3075944.228 0.323
322955.778 3075944.071 0.311
322955.609 3075943.942 0.298
322955.475 3075943.824 0.291
322955.300 3075943.676 0.284
322955.172 3075943.520 0.271
322955.079 3075943.379 0.260
322954.933 3075943.229 0.244
322954.779 3075943.125 0.235
322954.633 3075943.004 0.234
322954.460 3075942.892 0.231
322954.319 3075942.766 0.221
322954.212 3075942.660 0.212
322954.052 3075942.541 0.199
322953.883 3075942.442 0.187
322953.738 3075942.340 0.186
322953.534 3075942.218 0.183
322953.402 3075942.075 0.171
322953.329 3075941.953 0.163
322953.196 3075941.798 0.148
322953.033 3075941.661 0.136
322952.875 3075941.518 0.135
322952.668 3075941.362 0.128
322952.524 3075941.196 0.109
322952.432 3075941.072 0.100
322952.308 3075940.911 0.088
322952.131 3075940.758 0.075
322951.960 3075940.604 0.076
322951.797 3075940.463 0.066
322951.685 3075940.312 0.050
322951.597 3075940.152 0.040
322951.465 3075940.000 0.029
322951.312 3075939.877 0.023
322951.148 3075939.724 0.022
322951.026 3075939.593 0.014
322950.954 3075939.456 0.004
322950.842 3075939.302 -0.004
322950.706 3075939.155 -0.013
322950.564 3075939.016 -0.019
322950.440 3075938.862 -0.018
322950.291 3075938.727 -0.023
322950.187 3075938.555 -0.033
322950.101 3075938.413 -0.036
322949.975 3075938.242 -0.043
322949.828 3075938.089 -0.051
322949.707 3075937.939 -0.049
322949.545 3075937.785 -0.054
322949.432 3075937.624 -0.067
322949.350 3075937.502 -0.071
322949.234 3075937.342 -0.077
322949.097 3075937.209 -0.079
322948.967 3075937.079 -0.076
322948.813 3075936.951 -0.076
322948.693 3075936.832 -0.083
322948.624 3075936.725 -0.090
322948.519 3075936.590 -0.099
322948.397 3075936.469 -0.103
322948.264 3075936.369 -0.101
322948.093 3075936.244 -0.097
322947.955 3075936.101 -0.103
322947.905 3075935.959 -0.108
322947.801 3075935.793 -0.112
322947.687 3075935.635 -0.119
322947.562 3075935.523 -0.125
322947.427 3075935.366 -0.128
322947.322 3075935.240 -0.136
322947.246 3075935.108 -0.145
322947.178 3075934.977 -0.153
322947.077 3075934.816 -0.159
322946.942 3075934.674 -0.160
322946.814 3075934.554 -0.158
322946.649 3075934.424 -0.163
322946.538 3075934.294 -0.174
322946.465 3075934.199 -0.183
322946.359 3075934.057 -0.194
322946.221 3075933.945 -0.200
322946.086 3075933.856 -0.199
322945.909 3075933.728 -0.199
322945.791 3075933.597 -0.207
322945.767 3075933.478 -0.211
322945.679 3075933.319 -0.216
322945.591 3075933.175 -0.221
322945.470 3075933.055 -0.230
322945.329 3075932.942 -0.242
322945.208 3075932.808 -0.258
322945.120 3075932.675 -0.270
322945.116 3075932.577 -0.275
322945.033 3075932.409 -0.286
322944.932 3075932.275 -0.295
322944.780 3075932.143 -0.298
322944.622 3075931.966 -0.298
322944.527 3075931.810 -0.305
322944.515 3075931.684 -0.310
322944.465 3075931.526 -0.318
322944.393 3075931.392 -0.324
322944.284 3075931.284 -0.328
322944.162 3075931.139 -0.333
322944.064 3075931.023 -0.341
322944.032 3075930.901 -0.347
322943.980 3075930.771 -0.358
322943.898 3075930.627 -0.370
322943.772 3075930.537 -0.378
322943.659 3075930.427 -0.384
322943.559 3075930.318 -0.390
322943.531 3075930.200 -0.395
322943.539 3075930.110 -0.397
322943.501 3075929.993 -0.402
322943.459 3075929.892 -0.405
322943.369 3075929.800 -0.408
322943.245 3075929.719 -0.410
322943.155 3075929.648 -0.412
322943.144 3075929.578 -0.413
322943.169 3075929.497 -0.414
322943.172 3075929.389 -0.415
322943.130 3075929.305 -0.418
322942.990 3075929.223 -0.425
322943.194 3075928.669 -0.430
322943.204 3075928.655 -0.430
