322968.010 3075980.667 2.541
322967.983 3075980.646 2.545
322967.965 3075980.654 2.549
322967.969 3075980.671 2.541
322967.983 3075980.690 2.539
322967.971 3075980.709 2.547
322967.943 3075980.767 2.537
322967.819 3075980.851 2.518
322967.681 3075980.904 2.511
322967.578 3075980.918 2.545
322967.554 3075980.938 2.554
322967.594 3075980.986 2.553
322967.610 3075980.985 2.558
322967.617 3075980.989 2.558
322967.615 3075980.991 2.561
322967.610 3075980.997 2.561
322967.606 3075981.004 2.563
322967.604 3075980.986 2.574
322967.616 3075980.947 2.577
322967.631 3075980.907 2.581
322967.620 3075980.881 2.572
322967.543 3075980.828 2.569
322967.513 3075980.582 2.555
322967.541 3075980.520 2.549
322967.572 3075980.522 2.549
322967.600 3075980.574 2.566
322967.620 3075980.594 2.582
322967.652 3075980.534 2.575
322967.710 3075980.458 2.562
322967.774 3075980.406 2.560
322967.859 3075980.391 2.560
322967.870 3075980.356 2.515
322967.914 3075980.362 2.406
322967.839 3075980.350 2.318
322967.649 3075980.213 2.210
322967.487 3075980.180 2.231
322967.361 3075980.147 2.260
322967.328 3075980.085 2.263
322967.314 3075979.989 2.211
322967.321 3075979.903 2.198
322967.237 3075979.775 2.196
322967.119 3075979.675 2.179
322967.013 3075979.617 2.168
322966.954 3075979.577 2.178
322966.960 3075979.537 2.189
322967.007 3075979.500 2.120
322967.025 3075979.403 2.023
322967.041 3075979.328 2.009
322966.937 3075979.254 2.016
322966.794 3075979.184 1.955
322966.694 3075979.167 1.925
322966.632 3075979.129 1.926
322966.660 3075979.072 1.924
322966.739 3075979.067 1.919
322966.724 3075978.982 1.903
322966.672 3075978.923 1.852
322966.588 3075978.873 1.828
322966.564 3075978.845 1.849
322966.541 3075978.840 1.856
322966.494 3075978.859 1.873
322966.491 3075978.846 1.875
322966.535 3075978.793 1.873
322966.608 3075978.740 1.856
322966.721 3075978.730 1.867
322966.764 3075978.606 1.863
322966.747 3075978.428 1.798
322966.705 3075978.282 1.775
322966.694 3075978.121 1.779
322966.721 3075978.000 1.774
322966.749 3075977.868 1.798
322966.684 3075977.695 1.797
322966.560 3075977.522 1.729
322966.407 3075977.349 1.710
322966.290 3075977.192 1.730
322966.209 3075977.039 1.705
322966.239 3075976.943 1.696
322966.105 3075976.752 1.705
322965.943 3075976.632 1.634
322965.753 3075976.533 1.620
322965.579 3075976.432 1.634
322965.434 3075976.332 1.593
322965.317 3075976.201 1.560
322965.127 3075976.078 1.567
322964.917 3075976.008 1.539
322964.708 3075975.959 1.500
322964.516 3075975.897 1.528
322964.309 3075975.806 1.513
322964.171 3075975.702 1.512
322964.017 3075975.613 1.537
322963.864 3075975.572 1.537
322963.626 3075975.484 1.473
322963.416 3075975.426 1.501
322963.248 3075975.313 1.494
322963.119 3075975.171 1.455
322963.019 3075975.062 1.467
322962.860 3075974.947 1.472
322962.691 3075974.852 1.471
322962.502 3075974.750 1.421
322962.332 3075974.619 1.444
322962.229 3075974.480 1.434
322962.161 3075974.355 1.397
322962.079 3075974.220 1.419
322961.924 3075974.104 1.423
322961.751 3075973.945 1.377
322961.601 3075973.809 1.386
322961.468 3075973.655 1.400
322961.381 3075973.504 1.392
322961.348 3075973.376 1.347
322961.245 3075973.211 1.364
322961.089 3075973.069 1.360
322960.868 3075972.909 1.315
322960.681 3075972.777 1.334
322960.568 3075972.654 1.328
322960.434 3075972.491 1.299
322960.343 3075972.355 1.291
322960.180 3075972.212 1.304
322960.003 3075972.085 1.288
322959.805 3075971.976 1.251
322959.645 3075971.823 1.272
322959.527 3075971.667 1.259
322959.448 3075971.521 1.226
322959.352 3075971.365 1.250
322959.199 3075971.232 1.254
322959.031 3075971.073 1.204
322958.881 3075970.947 1.210
322958.750 3075970.799 1.215
322958.631 3075970.644 1.193
322958.541 3075970.498 1.170
322958.402 3075970.353 1.187
322958.217 3075970.251 1.191
322958.050 3075970.135 1.128
322957.873 3075969.983 1.154
322957.778 3075969.853 1.153
322957.666 3075969.710 1.100
322957.568 3075969.563 1.110
322957.394 3075969.429 1.121
322957.213 3075969.264 1.078
322957.056 3075969.150 1.084
322956.923 3075968.993 1.093
322956.824 3075968.836 1.086
322956.769 3075968.715 1.042
322956.626 3075968.544 1.063
322956.452 3075968.413 1.070
322956.276 3075968.268 1.003
322956.111 3075968.124 1.032
322955.978 3075967.983 1.034
322955.854 3075967.832 0.989
322955.778 3075967.694 1.000
322955.618 3075967.577 1.015
322955.444 3075967.458 0.946
322955.269 3075967.371 0.982
322955.142 3075967.234 1.001
322955.089 3075967.086 0.947
322955.023 3075966.952 0.965
322954.868 3075966.826 0.972
322954.689 3075966.668 0.898
322954.526 3075966.513 0.913
322954.411 3075966.354 0.907
322954.349 3075966.218 0.879
322954.273 3075966.078 0.907
322954.123 3075965.930 0.903
322953.968 3075965.789 0.880
322953.819 3075965.654 0.851
322953.686 3075965.522 0.872
322953.571 3075965.382 0.862
322953.471 3075965.219 0.828
322953.370 3075965.080 0.861
322953.223 3075964.960 0.867
322953.048 3075964.813 0.819
322952.887 3075964.684 0.816
322952.760 3075964.546 0.829
322952.635 3075964.377 0.796
322952.544 3075964.257 0.800
322952.391 3075964.113 0.832
322952.192 3075963.993 0.828
322952.037 3075963.883 0.779
322951.875 3075963.741 0.817
322951.747 3075963.585 0.808
322951.654 3075963.447 0.776
322951.538 3075963.301 0.807
322951.364 3075963.172 0.800
322951.187 3075963.032 0.739
322951.024 3075962.909 0.763
322950.901 3075962.767 0.763
322950.822 3075962.605 0.722
322950.752 3075962.474 0.728
322950.622 3075962.319 0.735
322950.447 3075962.164 0.725
322950.295 3075962.044 0.694
322950.151 3075961.911 0.725
322950.036 3075961.767 0.714
322949.952 3075961.595 0.684
322949.924 3075961.458 0.709
322949.819 3075961.304 0.714
322949.678 3075961.149 0.691
322949.539 3075961.013 0.670
322949.407 3075960.867 0.688
322949.306 3075960.720 0.676
322949.202 3075960.557 0.638
322949.109 3075960.406 0.675
322948.948 3075960.278 0.678
322948.766 3075960.139 0.628
322948.607 3075960.035 0.659
322948.457 3075959.898 0.661
322948.355 3075959.738 0.631
322948.261 3075959.582 0.679
322948.098 3075959.449 0.689
322947.908 3075959.286 0.639
322947.731 3075959.140 0.682
322947.589 3075958.965 0.688
322947.518 3075958.812 0.669
322947.427 3075958.647 0.726
322947.266 3075958.482 0.741
322947.109 3075958.309 0.700
322946.967 3075958.162 0.757
322946.857 3075957.995 0.765
322946.792 3075957.829 0.727
322946.750 3075957.663 0.756
322946.639 3075957.490 0.768
322946.469 3075957.314 0.729
322946.312 3075957.201 0.693
322946.188 3075957.079 0.718
322946.100 3075956.951 0.676
322946.062 3075956.794 0.593
322945.992 3075956.611 0.602
322945.849 3075956.437 0.597
322945.691 3075956.300 0.514
322945.539 3075956.190 0.508
322945.403 3075956.065 0.521
322945.323 3075955.940 0.504
322945.215 3075955.769 0.455
322945.105 3075955.610 0.457
322944.990 3075955.476 0.459
322944.860 3075955.367 0.443
322944.701 3075955.218 0.390
322944.562 3075955.085 0.405
322944.446 3075954.951 0.399
322944.366 3075954.800 0.350
322944.287 3075954.646 0.353
322944.145 3075954.503 0.366
322943.992 3075954.364 0.348
322943.846 3075954.216 0.305
322943.700 3075954.032 0.323
322943.590 3075953.860 0.320
322943.542 3075953.724 0.281
322943.454 3075953.547 0.305
322943.309 3075953.392 0.297
322943.154 3075953.226 0.260
322943.020 3075953.096 0.249
322942.892 3075952.948 0.271
322942.789 3075952.781 0.242
322942.741 3075952.638 0.233
322942.628 3075952.473 0.254
322942.477 3075952.361 0.253
322942.317 3075952.212 0.208
322942.174 3075952.078 0.224
322942.058 3075951.941 0.226
322941.958 3075951.799 0.197
322941.877 3075951.663 0.192
322941.758 3075951.529 0.207
322941.617 3075951.421 0.199
322941.424 3075951.271 0.152
322941.257 3075951.127 0.165
322941.126 3075950.995 0.168
322941.019 3075950.850 0.138
322940.960 3075950.714 0.134
322940.852 3075950.576 0.146
322940.708 3075950.475 0.141
322940.524 3075950.354 0.100
322940.372 3075950.232 0.104
322940.225 3075950.103 0.113
322940.100 3075949.965 0.091
322940.056 3075949.842 0.077
322939.973 3075949.712 0.092
322939.847 3075949.599 0.095
322939.679 3075949.487 0.074
322939.511 3075949.390 0.050
322939.371 3075949.270 0.065
322939.254 3075949.140 0.060
322939.161 3075948.984 0.015
322939.041 3075948.833 0.027
322938.915 3075948.706 0.042
322938.750 3075948.567 0.005
322938.605 3075948.451 -0.013
322938.466 3075948.285 0.000
322938.351 3075948.105 -0.011
322938.303 3075947.963 -0.043
322938.170 3075947.791 -0.007
322937.983 3075947.625 -0.012
322937.831 3075947.471 -0.052
322937.692 3075947.317 -0.043
322937.577 3075947.158 -0.042
322937.497 3075946.992 -0.074
322937.404 3075946.845 -0.064
322937.278 3075946.696 -0.053
322937.114 3075946.537 -0.091
322936.969 3075946.391 -0.108
322936.834 3075946.218 -0.096
322936.731 3075946.039 -0.113
322936.670 3075945.882 -0.144
322936.535 3075945.707 -0.118
322936.359 3075945.573 -0.122
322936.182 3075945.442 -0.160
322936.032 3075945.316 -0.142
322935.913 3075945.163 -0.143
322935.834 3075945.021 -0.169
322935.742 3075944.892 -0.152
322935.608 3075944.773 -0.134
322935.456 3075944.669 -0.141
322935.274 3075944.551 -0.178
322935.109 3075944.412 -0.161
322935.006 3075944.265 -0.177
322934.931 3075944.100 -0.205
322934.881 3075943.972 -0.193
322934.764 3075943.846 -0.172
322934.621 3075943.747 -0.178
322934.455 3075943.634 -0.209
322934.321 3075943.514 -0.184
322934.233 3075943.380 -0.188
322934.179 3075943.239 -0.214
322934.150 3075943.139 -0.212
322934.056 3075943.019 -0.205
322933.945 3075942.936 -0.218
322933.793 3075942.827 -0.250
322933.628 3075942.699 -0.256
322933.473 3075942.571 -0.251
322933.359 3075942.452 -0.263
322933.327 3075942.327 -0.292
322933.280 3075942.197 -0.268
322933.188 3075942.094 -0.269
322933.035 3075941.956 -0.293
322932.849 3075941.872 -0.309
322932.703 3075941.725 -0.294
322932.600 3075941.552 -0.305
322932.542 3075941.403 -0.343
322932.449 3075941.241 -0.321
322932.317 3075941.118 -0.324
322932.145 3075940.979 -0.369
322931.967 3075940.852 -0.356
322931.866 3075940.709 -0.361
322931.807 3075940.567 -0.398
322931.763 3075940.422 -0.398
322931.606 3075940.265 -0.391
322931.447 3075940.169 -0.401
322931.300 3075940.113 -0.432
322931.174 3075939.997 -0.428
322931.121 3075939.913 -0.429
322931.107 3075939.852 -0.437
322931.096 3075939.805 -0.440
322931.092 3075939.773 -0.445
322931.087 3075939.745 -0.448
