323109.273 3075862.163 2.302
323109.255 3075862.149 2.303
323109.239 3075862.124 2.344
323109.210 3075862.076 2.357
323109.132 3075862.017 2.358
323109.029 3075861.982 2.355
323108.913 3075861.967 2.343
323108.826 3075861.957 2.352
323108.744 3075861.923 2.365
323108.718 3075861.900 2.364
323108.755 3075861.869 2.322
323108.783 3075861.805 2.246
323108.741 3075861.724 2.234
323108.685 3075861.669 2.217
323108.605 3075861.650 2.192
323108.557 3075861.616 2.170
323108.496 3075861.575 2.181
323108.472 3075861.535 2.164
323108.486 3075861.468 2.144
323108.466 3075861.384 2.103
323108.430 3075861.332 2.074
323108.379 3075861.251 2.089
323108.293 3075861.212 2.043
323108.183 3075861.158 1.974
323108.071 3075861.067 1.996
323108.024 3075860.977 1.962
323107.992 3075860.896 1.878
323107.912 3075860.814 1.873
323107.844 3075860.742 1.888
323107.771 3075860.736 1.868
323107.692 3075860.691 1.885
323107.616 3075860.657 1.887
323107.601 3075860.594 1.863
323107.594 3075860.529 1.827
323107.542 3075860.451 1.835
323107.477 3075860.378 1.829
323107.385 3075860.337 1.838
323107.281 3075860.338 1.812
323107.190 3075860.320 1.815
323107.127 3075860.298 1.809
323107.105 3075860.249 1.746
323107.043 3075860.222 1.717
323106.975 3075860.173 1.746
323106.853 3075860.185 1.731
323106.719 3075860.235 1.722
323106.561 3075860.263 1.768
323106.414 3075860.275 1.776
323106.299 3075860.237 1.779
323106.219 3075860.194 1.715
323106.058 3075860.137 1.717
323105.924 3075860.076 1.738
323105.782 3075860.059 1.727
323105.597 3075860.028 1.711
323105.408 3075859.981 1.713
323105.281 3075859.922 1.714
323105.218 3075859.875 1.673
323105.190 3075859.822 1.609
323105.092 3075859.729 1.604
323104.978 3075859.645 1.585
323104.834 3075859.574 1.540
323104.660 3075859.459 1.570
323104.550 3075859.351 1.542
323104.541 3075859.247 1.515
323104.435 3075859.117 1.545
323104.320 3075859.006 1.543
323104.178 3075858.900 1.566
323104.046 3075858.744 1.588
323103.991 3075858.599 1.583
323104.012 3075858.507 1.564
323104.112 3075858.211 1.545
323104.142 3075858.086 1.521
323104.198 3075857.991 1.521
323104.274 3075857.909 1.530
323104.393 3075857.932 1.497
323104.526 3075857.893 1.520
323104.621 3075857.847 1.540
323104.638 3075857.831 1.514
323104.662 3075857.806 1.523
323104.688 3075857.772 1.531
323104.752 3075857.698 1.554
323104.744 3075857.668 1.556
323104.737 3075857.665 1.551
323104.707 3075857.677 1.544
323104.770 3075857.604 1.520
323104.817 3075857.555 1.523
323104.857 3075857.529 1.517
323104.885 3075857.507 1.524
323104.916 3075857.484 1.534
323104.910 3075857.496 1.535
323104.880 3075857.556 1.524
323104.859 3075857.584 1.519
323104.884 3075857.583 1.513
323104.913 3075857.568 1.506
323104.967 3075857.520 1.517
323105.017 3075857.463 1.520
323105.021 3075857.436 1.524
323105.005 3075857.430 1.520
323104.970 3075857.445 1.519
323104.912 3075857.463 1.515
323104.863 3075857.470 1.521
323104.799 3075857.440 1.522
323104.716 3075857.374 1.526
323104.679 3075857.306 1.505
323104.665 3075857.224 1.479
323104.626 3075857.122 1.484
323104.548 3075857.021 1.485
323104.415 3075856.933 1.445
323104.272 3075856.843 1.462
323104.152 3075856.751 1.477
323104.085 3075856.660 1.476
323104.061 3075856.532 1.453
323103.999 3075856.392 1.451
323103.917 3075856.264 1.477
323103.786 3075856.171 1.445
323103.635 3075856.124 1.428
323103.478 3075856.002 1.449
323103.384 3075855.895 1.438
323103.360 3075855.778 1.412
323103.288 3075855.637 1.424
323103.203 3075855.509 1.441
323103.089 3075855.408 1.435
323102.977 3075855.311 1.444
323102.852 3075855.206 1.454
323102.782 3075855.105 1.436
323102.706 3075854.998 1.429
323102.592 3075854.868 1.423
323102.463 3075854.775 1.386
323102.308 3075854.678 1.408
323102.163 3075854.568 1.433
323102.123 3075854.451 1.389
323102.087 3075854.333 1.398
323102.009 3075854.188 1.399
323101.881 3075854.056 1.391
323101.749 3075853.939 1.413
323101.637 3075853.820 1.430
323101.629 3075853.701 1.358
323101.545 3075853.579 1.382
323101.454 3075853.458 1.377
323101.297 3075853.366 1.332
323101.174 3075853.264 1.342
323101.003 3075853.140 1.346
323100.938 3075853.006 1.302
323100.912 3075852.912 1.260
323100.797 3075852.763 1.290
323100.668 3075852.650 1.261
323100.510 3075852.529 1.236
323100.366 3075852.366 1.277
323100.227 3075852.251 1.261
323100.167 3075852.108 1.229
323100.051 3075851.969 1.244
323099.971 3075851.852 1.247
323099.814 3075851.741 1.195
323099.658 3075851.609 1.234
323099.499 3075851.503 1.226
323099.437 3075851.376 1.175
323099.345 3075851.251 1.164
323099.225 3075851.116 1.171
323099.079 3075851.005 1.123
323098.936 3075850.900 1.148
323098.796 3075850.795 1.143
323098.733 3075850.688 1.119
323098.690 3075850.592 1.090
323098.568 3075850.468 1.098
323098.429 3075850.376 1.059
323098.292 3075850.276 1.084
323098.158 3075850.172 1.101
323098.087 3075850.049 1.091
323098.035 3075849.922 1.050
323097.920 3075849.783 1.069
323097.789 3075849.647 1.057
323097.622 3075849.557 1.013
323097.464 3075849.426 1.051
323097.343 3075849.327 1.028
323097.266 3075849.203 0.987
323097.137 3075849.075 1.004
323097.009 3075848.963 0.994
323096.836 3075848.857 0.970
323096.657 3075848.718 1.013
323096.508 3075848.597 0.999
323096.418 3075848.464 0.959
323096.304 3075848.336 0.967
323096.203 3075848.225 0.954
323096.058 3075848.125 0.897
323095.900 3075847.980 0.941
323095.772 3075847.848 0.931
323095.707 3075847.718 0.901
323095.598 3075847.572 0.921
323095.477 3075847.440 0.908
323095.328 3075847.337 0.868
323095.186 3075847.212 0.911
323095.064 3075847.098 0.899
323094.982 3075846.970 0.851
323094.901 3075846.837 0.856
323094.777 3075846.707 0.865
323094.630 3075846.582 0.840
323094.486 3075846.453 0.857
323094.322 3075846.313 0.853
323094.226 3075846.162 0.811
323094.143 3075846.026 0.810
323094.023 3075845.880 0.813
323093.859 3075845.759 0.772
323093.715 3075845.645 0.800
323093.549 3075845.525 0.799
323093.468 3075845.374 0.776
323093.380 3075845.256 0.777
323093.254 3075845.112 0.788
323093.087 3075844.998 0.751
323092.918 3075844.899 0.783
323092.744 3075844.779 0.796
323092.634 3075844.655 0.779
323092.578 3075844.561 0.745
323092.454 3075844.424 0.765
323092.317 3075844.294 0.756
323092.168 3075844.184 0.712
323092.006 3075844.033 0.755
323091.864 3075843.898 0.729
323091.800 3075843.752 0.683
323091.690 3075843.611 0.698
323091.586 3075843.483 0.687
323091.435 3075843.346 0.646
323091.288 3075843.197 0.688
323091.144 3075843.063 0.688
323091.059 3075842.924 0.637
323090.957 3075842.778 0.643
323090.846 3075842.637 0.640
323090.703 3075842.496 0.608
323090.570 3075842.359 0.632
323090.407 3075842.233 0.630
323090.305 3075842.076 0.600
323090.201 3075841.938 0.616
323090.099 3075841.787 0.608
323089.965 3075841.648 0.566
323089.854 3075841.517 0.607
323089.689 3075841.372 0.629
323089.604 3075841.212 0.613
323089.517 3075841.084 0.637
323089.421 3075840.921 0.655
323089.297 3075840.780 0.649
323089.172 3075840.673 0.652
323088.988 3075840.527 0.679
323088.824 3075840.401 0.678
323088.735 3075840.257 0.650
323088.644 3075840.119 0.671
323088.530 3075839.978 0.689
323088.386 3075839.842 0.656
323088.258 3075839.721 0.700
323088.078 3075839.603 0.711
323087.948 3075839.453 0.679
323087.868 3075839.326 0.687
323087.752 3075839.161 0.704
323087.626 3075839.020 0.703
323087.484 3075838.923 0.702
323087.329 3075838.802 0.743
323087.208 3075838.708 0.744
323087.112 3075838.580 0.700
323087.025 3075838.471 0.666
323086.878 3075838.340 0.670
323086.721 3075838.236 0.613
323086.565 3075838.118 0.622
323086.444 3075838.002 0.588
323086.383 3075837.875 0.517
323086.286 3075837.724 0.528
323086.157 3075837.584 0.507
323085.979 3075837.433 0.468
323085.822 3075837.288 0.508
323085.716 3075837.129 0.469
323085.650 3075837.022 0.450
323085.533 3075836.855 0.452
323085.381 3075836.708 0.413
323085.246 3075836.592 0.397
323085.087 3075836.426 0.397
323084.993 3075836.267 0.347
323084.899 3075836.148 0.331
323084.773 3075835.979 0.331
323084.613 3075835.821 0.304
323084.468 3075835.642 0.336
323084.306 3075835.491 0.321
323084.232 3075835.354 0.306
323084.131 3075835.173 0.310
323084.013 3075835.027 0.283
323083.881 3075834.909 0.283
323083.692 3075834.739 0.311
323083.568 3075834.578 0.284
323083.489 3075834.448 0.275
323083.369 3075834.280 0.294
323083.233 3075834.153 0.262
323083.114 3075834.039 0.257
323082.962 3075833.891 0.275
323082.834 3075833.747 0.253
323082.750 3075833.617 0.218
323082.626 3075833.471 0.228
323082.496 3075833.344 0.209
323082.349 3075833.217 0.183
323082.185 3075833.072 0.220
323082.051 3075832.946 0.199
323081.960 3075832.803 0.153
323081.847 3075832.648 0.167
323081.721 3075832.503 0.157
323081.586 3075832.373 0.132
323081.411 3075832.216 0.171
323081.265 3075832.068 0.146
323081.191 3075831.927 0.109
323081.075 3075831.748 0.127
323080.937 3075831.590 0.120
323080.795 3075831.456 0.108
323080.641 3075831.294 0.146
323080.510 3075831.147 0.124
323080.429 3075831.008 0.082
323080.308 3075830.860 0.095
323080.183 3075830.719 0.084
323080.037 3075830.566 0.060
323079.906 3075830.416 0.096
323079.766 3075830.300 0.075
323079.659 3075830.160 0.036
323079.578 3075830.032 0.039
323079.445 3075829.890 0.037
323079.292 3075829.747 -0.005
323079.123 3075829.614 0.032
323078.926 3075829.485 0.031
323078.795 3075829.329 -0.019
323078.701 3075829.203 -0.012
323078.554 3075829.040 -0.011
323078.398 3075828.902 -0.044
323078.248 3075828.764 -0.023
323078.089 3075828.628 -0.016
323077.966 3075828.490 -0.060
323077.875 3075828.355 -0.062
323077.731 3075828.195 -0.046
323077.557 3075828.076 -0.083
323077.400 3075827.946 -0.032
323077.238 3075827.841 -0.022
323077.152 3075827.691 -0.062
323077.098 3075827.582 -0.051
323076.986 3075827.428 -0.031
323076.847 3075827.290 -0.047
323076.723 3075827.170 -0.055
323076.604 3075827.028 -0.032
323076.470 3075826.902 -0.039
323076.366 3075826.747 -0.088
323076.297 3075826.603 -0.076
323076.182 3075826.451 -0.075
323076.035 3075826.305 -0.112
323075.909 3075826.163 -0.081
323075.740 3075826.010 -0.074
323075.620 3075825.845 -0.113
323075.531 3075825.712 -0.110
323075.416 3075825.539 -0.096
323075.271 3075825.391 -0.148
323075.153 3075825.261 -0.139
323074.972 3075825.106 -0.127
323074.847 3075824.948 -0.167
323074.758 3075824.827 -0.170
323074.630 3075824.657 -0.163
323074.473 3075824.514 -0.199
323074.331 3075824.404 -0.190
323074.156 3075824.263 -0.162
323074.038 3075824.125 -0.182
323073.964 3075824.001 -0.187
323073.839 3075823.844 -0.169
323073.702 3075823.711 -0.180
323073.548 3075823.617 -0.214
323073.384 3075823.490 -0.182
323073.257 3075823.374 -0.197
323073.195 3075823.215 -0.231
323073.104 3075823.074 -0.224
323072.993 3075822.936 -0.200
323072.858 3075822.803 -0.224
323072.717 3075822.708 -0.242
323072.567 3075822.570 -0.229
323072.463 3075822.431 -0.263
323072.415 3075822.310 -0.279
323072.328 3075822.166 -0.283
323072.208 3075822.025 -0.305
323072.064 3075821.907 -0.334
323071.889 3075821.764 -0.296
323071.774 3075821.638 -0.308
323071.730 3075821.513 -0.326
323071.642 3075821.374 -0.322
323071.537 3075821.272 -0.331
323071.395 3075821.181 -0.352
323071.263 3075821.089 -0.331
323071.155 3075821.011 -0.313
323071.079 3075820.902 -0.322
323071.032 3075820.790 -0.343
323070.950 3075820.670 -0.331
323070.849 3075820.579 -0.348
323070.699 3075820.512 -0.377
323070.569 3075820.408 -0.363
323070.435 3075820.327 -0.358
323070.364 3075820.218 -0.383
323070.338 3075820.128 -0.406
323070.279 3075820.009 -0.397
323070.190 3075819.910 -0.392
323070.047 3075819.824 -0.403
323069.932 3075819.730 -0.398
323069.845 3075819.609 -0.386
323069.808 3075819.497 -0.394
323069.837 3075819.413 -0.411
323069.825 3075819.286 -0.410
323069.760 3075819.198 -0.410
323069.664 3075819.216 -0.442
323069.574 3075819.174 -0.438
323069.552 3075819.129 -0.435
