322768.554 3076178.665 1.741
322768.538 3076178.654 1.757
322768.499 3076178.593 1.763
322768.481 3076178.565 1.776
322768.454 3076178.551 1.794
322768.354 3076178.483 1.931
322768.379 3076178.439 1.952
322768.418 3076178.336 1.974
322768.383 3076178.183 1.945
322768.459 3076178.377 1.934
322768.484 3076178.440 1.920
322768.499 3076178.464 1.919
322768.503 3076178.478 1.920
322768.505 3076178.462 1.925
322768.499 3076178.435 1.901
322768.412 3076178.287 1.909
322768.285 3076178.191 1.888
322768.172 3076178.128 1.884
322768.101 3076178.097 1.860
322768.049 3076177.989 1.795
322767.971 3076177.822 1.772
322767.896 3076177.676 1.782
322767.788 3076177.579 1.754
322767.622 3076177.472 1.733
322767.423 3076177.400 1.678
322767.266 3076177.273 1.693
322767.141 3076177.117 1.669
322767.084 3076176.988 1.631
322766.979 3076176.837 1.685
322766.855 3076176.733 1.678
322766.739 3076176.563 1.620
322766.604 3076176.459 1.696
322766.423 3076176.247 1.659
322766.382 3076176.137 1.721
322766.293 3076176.001 1.759
322766.151 3076175.850 1.755
322766.039 3076175.764 1.790
322765.939 3076175.678 1.778
322765.842 3076175.555 1.781
322765.783 3076175.464 1.801
322765.698 3076175.355 1.826
322765.550 3076175.279 1.811
322765.431 3076175.205 1.801
322765.307 3076175.153 1.841
322765.259 3076175.033 1.826
322765.287 3076174.943 1.837
322765.244 3076174.839 1.855
322765.140 3076174.711 1.858
322765.016 3076174.596 1.843
322764.925 3076174.576 1.843
322764.818 3076174.529 1.845
322764.784 3076174.452 1.855
322764.765 3076174.335 1.763
322764.718 3076174.180 1.730
322764.611 3076174.024 1.746
322764.477 3076173.898 1.734
322764.362 3076173.832 1.750
322764.276 3076173.720 1.755
322764.237 3076173.593 1.750
322764.241 3076173.477 1.718
322764.175 3076173.330 1.717
322764.066 3076173.215 1.698
322763.938 3076173.132 1.687
322763.812 3076173.080 1.732
322763.729 3076172.977 1.718
322763.676 3076172.850 1.700
322763.644 3076172.731 1.686
322763.521 3076172.609 1.690
322763.389 3076172.496 1.674
322763.233 3076172.486 1.743
322763.128 3076172.390 1.725
322763.081 3076172.277 1.699
322763.075 3076172.167 1.698
322762.956 3076172.051 1.700
322762.834 3076171.960 1.679
322762.678 3076171.909 1.681
322762.557 3076171.812 1.687
322762.507 3076171.701 1.697
322762.554 3076171.615 1.650
322762.462 3076171.479 1.659
322762.347 3076171.369 1.660
322762.206 3076171.277 1.624
322762.080 3076171.191 1.646
322762.027 3076171.072 1.627
322762.022 3076170.969 1.596
322762.033 3076170.868 1.555
322761.921 3076170.700 1.558
322761.785 3076170.570 1.538
322761.662 3076170.475 1.499
322761.533 3076170.353 1.535
322761.471 3076170.239 1.524
322761.427 3076170.116 1.502
322761.368 3076169.979 1.523
322761.261 3076169.872 1.529
322761.124 3076169.760 1.505
322760.963 3076169.654 1.476
322760.833 3076169.501 1.474
322760.738 3076169.337 1.471
322760.721 3076169.229 1.465
322760.622 3076169.066 1.488
322760.482 3076168.910 1.459
322760.320 3076168.782 1.432
322760.171 3076168.609 1.450
322760.034 3076168.447 1.419
322759.995 3076168.322 1.409
322759.880 3076168.140 1.447
322759.706 3076167.981 1.456
322759.515 3076167.846 1.414
322759.337 3076167.697 1.443
322759.196 3076167.521 1.440
322759.128 3076167.374 1.394
322759.022 3076167.209 1.423
322758.851 3076167.082 1.434
322758.695 3076166.961 1.382
322758.500 3076166.800 1.437
322758.380 3076166.601 1.429
322758.349 3076166.456 1.393
322758.270 3076166.276 1.427
322758.121 3076166.141 1.441
322757.959 3076165.993 1.370
322757.787 3076165.909 1.407
322757.682 3076165.745 1.409
322757.637 3076165.574 1.339
322757.586 3076165.375 1.353
322757.441 3076165.165 1.362
322757.261 3076164.981 1.302
322757.087 3076164.812 1.342
322756.967 3076164.606 1.342
322756.895 3076164.392 1.286
322756.806 3076164.185 1.312
322756.658 3076164.017 1.298
322756.479 3076163.843 1.249
322756.324 3076163.693 1.276
322756.215 3076163.518 1.267
322756.136 3076163.331 1.215
322756.033 3076163.152 1.242
322755.897 3076163.027 1.241
322755.737 3076162.901 1.207
322755.563 3076162.776 1.196
322755.407 3076162.618 1.215
322755.277 3076162.448 1.200
322755.196 3076162.308 1.166
322755.056 3076162.158 1.184
322754.915 3076162.056 1.169
322754.753 3076161.919 1.110
322754.585 3076161.808 1.129
322754.464 3076161.661 1.122
322754.347 3076161.494 1.099
322754.266 3076161.354 1.093
322754.140 3076161.203 1.112
322754.009 3076161.106 1.104
322753.825 3076160.979 1.046
322753.661 3076160.869 1.072
322753.561 3076160.728 1.065
322753.445 3076160.570 1.027
322753.341 3076160.415 1.020
322753.205 3076160.277 1.040
322753.043 3076160.153 1.012
322752.862 3076160.028 0.966
322752.692 3076159.895 0.995
322752.593 3076159.755 0.984
322752.481 3076159.616 0.930
322752.364 3076159.463 0.952
322752.200 3076159.345 0.945
322752.029 3076159.198 0.910
322751.832 3076159.067 0.906
322751.658 3076158.899 0.916
322751.530 3076158.737 0.897
322751.462 3076158.614 0.879
322751.323 3076158.452 0.898
322751.147 3076158.314 0.892
322750.983 3076158.184 0.835
322750.810 3076158.037 0.866
322750.682 3076157.874 0.851
322750.560 3076157.730 0.806
322750.427 3076157.568 0.833
322750.259 3076157.435 0.843
322750.096 3076157.294 0.792
322749.923 3076157.177 0.795
322749.781 3076157.010 0.794
322749.665 3076156.835 0.758
322749.585 3076156.687 0.768
322749.405 3076156.527 0.776
322749.205 3076156.356 0.732
322749.007 3076156.243 0.732
322748.842 3076156.075 0.729
322748.700 3076155.905 0.701
322748.568 3076155.735 0.691
322748.409 3076155.580 0.700
322748.225 3076155.417 0.671
322748.037 3076155.304 0.651
322747.858 3076155.121 0.672
322747.716 3076154.906 0.641
322747.646 3076154.741 0.631
322747.499 3076154.556 0.650
322747.286 3076154.346 0.620
322747.119 3076154.206 0.615
322746.966 3076154.018 0.631
322746.827 3076153.814 0.581
322746.706 3076153.628 0.638
322746.535 3076153.492 0.660
322746.363 3076153.324 0.603
322746.180 3076153.178 0.642
322746.019 3076152.983 0.638
322745.928 3076152.826 0.621
322745.796 3076152.641 0.667
322745.607 3076152.487 0.678
322745.449 3076152.338 0.641
322745.275 3076152.203 0.692
322745.142 3076152.052 0.690
322745.042 3076151.878 0.668
322745.001 3076151.746 0.655
322744.884 3076151.594 0.671
322744.729 3076151.458 0.622
322744.561 3076151.344 0.535
322744.367 3076151.192 0.542
322744.234 3076151.052 0.548
322744.171 3076150.928 0.542
322744.064 3076150.769 0.473
322743.918 3076150.581 0.492
322743.775 3076150.455 0.485
322743.641 3076150.304 0.440
322743.456 3076150.157 0.425
322743.325 3076149.982 0.425
322743.205 3076149.812 0.396
322743.073 3076149.633 0.381
322742.919 3076149.455 0.397
322742.729 3076149.292 0.373
322742.572 3076149.172 0.341
322742.403 3076149.001 0.367
322742.253 3076148.813 0.351
322742.170 3076148.667 0.327
322742.016 3076148.476 0.347
322741.841 3076148.303 0.331
322741.688 3076148.162 0.293
322741.507 3076147.977 0.317
322741.356 3076147.768 0.306
322741.295 3076147.628 0.280
322741.146 3076147.431 0.305
322740.955 3076147.266 0.302
322740.808 3076147.108 0.248
322740.637 3076146.941 0.266
322740.500 3076146.749 0.261
322740.397 3076146.599 0.216
322740.243 3076146.411 0.232
322740.057 3076146.256 0.235
322739.904 3076146.099 0.174
322739.719 3076145.953 0.192
322739.568 3076145.778 0.184
322739.436 3076145.624 0.151
322739.301 3076145.466 0.142
322739.143 3076145.312 0.154
322738.955 3076145.195 0.143
322738.785 3076145.097 0.092
322738.620 3076144.977 0.117
322738.491 3076144.837 0.117
322738.363 3076144.694 0.074
322738.222 3076144.543 0.091
322738.057 3076144.410 0.093
322737.881 3076144.274 0.068
322737.734 3076144.166 0.037
322737.589 3076144.040 0.049
322737.445 3076143.868 0.027
322737.366 3076143.745 0.001
322737.220 3076143.575 0.023
322737.043 3076143.411 0.020
322736.914 3076143.295 -0.015
322736.754 3076143.125 0.005
322736.619 3076142.936 -0.003
322736.548 3076142.781 -0.043
322736.422 3076142.595 -0.019
322736.258 3076142.441 -0.014
322736.114 3076142.297 -0.070
322735.939 3076142.165 -0.044
322735.770 3076141.987 -0.037
322735.665 3076141.814 -0.079
322735.551 3076141.640 -0.065
322735.387 3076141.471 -0.064
322735.200 3076141.306 -0.106
322735.052 3076141.208 -0.101
322734.909 3076141.060 -0.086
322734.762 3076140.886 -0.109
322734.672 3076140.753 -0.113
322734.516 3076140.608 -0.088
322734.332 3076140.489 -0.097
322734.152 3076140.376 -0.138
322733.956 3076140.242 -0.115
322733.808 3076140.084 -0.119
322733.714 3076139.957 -0.152
322733.571 3076139.800 -0.126
322733.410 3076139.700 -0.121
322733.230 3076139.584 -0.164
322733.053 3076139.500 -0.155
322732.927 3076139.358 -0.156
322732.830 3076139.179 -0.186
322732.797 3076139.048 -0.172
322732.654 3076138.882 -0.164
322732.521 3076138.704 -0.190
322732.373 3076138.585 -0.186
322732.242 3076138.401 -0.176
322732.116 3076138.225 -0.190
322732.091 3076138.099 -0.224
322731.967 3076137.945 -0.210
322731.831 3076137.826 -0.217
322731.680 3076137.673 -0.255
322731.518 3076137.556 -0.252
322731.373 3076137.388 -0.244
322731.265 3076137.216 -0.255
322731.196 3076137.074 -0.285
322731.082 3076136.910 -0.266
322730.934 3076136.778 -0.274
322730.785 3076136.646 -0.335
322730.603 3076136.491 -0.313
322730.485 3076136.323 -0.323
322730.405 3076136.177 -0.369
322730.306 3076136.025 -0.353
322730.147 3076135.901 -0.343
322729.999 3076135.807 -0.377
322729.836 3076135.692 -0.374
322729.715 3076135.556 -0.357
322729.635 3076135.422 -0.382
322729.567 3076135.267 -0.393
322729.416 3076135.122 -0.390
322729.285 3076135.047 -0.401
322729.146 3076134.995 -0.428
322729.002 3076134.892 -0.410
322728.918 3076134.751 -0.416
322728.877 3076134.616 -0.433
322728.902 3076134.534 -0.435
322728.789 3076134.423 -0.419
322728.515 3076134.149 -0.457
322728.515 3076134.126 -0.454
322728.503 3076134.111 -0.451
322728.542 3076134.110 -0.449
322728.705 3076134.125 -0.422
322728.787 3076134.137 -0.439
322728.837 3076134.179 -0.443
322728.842 3076134.207 -0.459
322728.842 3076134.202 -0.466
322728.857 3076134.210 -0.477
322728.870 3076134.228 -0.478
322728.872 3076134.236 -0.475
322728.871 3076134.246 -0.476
322728.869 3076134.248 -0.475
322728.861 3076134.246 -0.467
322728.856 3076134.247 -0.472
322728.852 3076134.247 -0.467
322728.847 3076134.247 -0.468
