322880.938 3076061.280 2.392
322880.941 3076061.284 2.394
322880.937 3076061.285 2.399
322880.939 3076061.288 2.394
322880.936 3076061.295 2.398
322880.899 3076061.323 2.392
322880.890 3076061.332 2.390
322880.892 3076061.346 2.384
322880.868 3076061.333 2.386
322880.807 3076061.300 2.385
322880.759 3076061.280 2.390
322880.730 3076061.256 2.389
322880.718 3076061.208 2.390
322880.760 3076061.155 2.381
322880.743 3076061.076 2.377
322880.714 3076061.010 2.388
322880.626 3076060.952 2.385
322880.513 3076060.923 2.378
322880.372 3076060.879 2.395
322880.264 3076060.831 2.398
322880.209 3076060.751 2.377
322880.237 3076060.679 2.339
322880.158 3076060.618 2.339
322880.066 3076060.564 2.318
322879.951 3076060.465 2.244
322879.871 3076060.534 2.240
322879.867 3076060.562 2.225
322879.897 3076060.578 2.182
322879.958 3076060.557 2.116
322879.966 3076060.500 2.051
322879.931 3076060.394 1.998
322879.892 3076060.311 1.995
322879.822 3076060.233 2.003
322879.759 3076060.198 2.012
322879.659 3076060.175 1.987
322879.533 3076060.162 1.940
322879.437 3076060.125 1.926
322879.355 3076060.089 1.917
322879.316 3076060.027 1.858
322879.282 3076059.964 1.847
322879.214 3076059.869 1.851
322879.125 3076059.815 1.847
322879.003 3076059.776 1.806
322878.899 3076059.693 1.823
322878.834 3076059.625 1.817
322878.802 3076059.559 1.784
322878.715 3076059.472 1.770
322878.650 3076059.394 1.769
322878.544 3076059.321 1.737
322878.480 3076059.268 1.672
322878.370 3076059.152 1.689
322878.314 3076059.048 1.651
322878.296 3076058.966 1.644
322878.272 3076058.886 1.635
322878.228 3076058.815 1.646
322878.139 3076058.760 1.633
322878.024 3076058.711 1.595
322877.918 3076058.618 1.583
322877.821 3076058.529 1.583
322877.792 3076058.435 1.535
322877.761 3076058.344 1.505
322877.640 3076058.235 1.518
322877.502 3076058.132 1.508
322877.365 3076058.029 1.517
322877.233 3076057.916 1.526
322877.129 3076057.805 1.520
322877.144 3076057.718 1.483
322877.063 3076057.620 1.490
322877.000 3076057.513 1.503
322876.867 3076057.447 1.477
322876.722 3076057.398 1.474
322876.606 3076057.326 1.484
322876.555 3076057.260 1.482
322876.550 3076057.168 1.462
322876.578 3076057.090 1.439
322876.530 3076056.980 1.445
322876.466 3076056.878 1.449
322876.374 3076056.790 1.438
322876.260 3076056.723 1.414
322876.149 3076056.608 1.434
322876.081 3076056.499 1.441
322876.097 3076056.412 1.424
322876.060 3076056.315 1.418
322876.034 3076056.214 1.437
322875.960 3076056.132 1.424
322875.861 3076056.063 1.415
322875.747 3076055.992 1.420
322875.647 3076055.899 1.424
322875.607 3076055.798 1.387
322875.627 3076055.703 1.358
322875.559 3076055.582 1.374
322875.466 3076055.516 1.344
322875.343 3076055.458 1.307
322875.233 3076055.382 1.336
322875.146 3076055.320 1.334
322875.093 3076055.231 1.316
322875.061 3076055.131 1.276
322874.946 3076055.028 1.268
322874.842 3076054.909 1.282
322874.698 3076054.811 1.252
322874.563 3076054.712 1.247
322874.425 3076054.601 1.256
322874.338 3076054.504 1.233
322874.279 3076054.406 1.201
322874.171 3076054.280 1.224
322874.055 3076054.203 1.191
322873.946 3076054.126 1.188
322873.823 3076054.034 1.214
322873.717 3076053.939 1.209
322873.635 3076053.831 1.192
322873.604 3076053.730 1.169
322873.472 3076053.608 1.177
322873.316 3076053.501 1.142
322873.172 3076053.425 1.125
322872.999 3076053.272 1.160
322872.892 3076053.133 1.142
322872.826 3076052.995 1.099
322872.683 3076052.853 1.122
322872.569 3076052.735 1.108
322872.435 3076052.629 1.059
322872.298 3076052.488 1.083
322872.149 3076052.338 1.085
322872.059 3076052.188 1.032
322871.950 3076052.061 1.042
322871.829 3076051.928 1.040
322871.682 3076051.807 0.987
322871.574 3076051.683 1.008
322871.441 3076051.550 1.005
322871.326 3076051.418 0.971
322871.235 3076051.318 0.971
322871.127 3076051.202 0.982
322870.991 3076051.116 0.949
322870.885 3076051.015 0.952
322870.745 3076050.921 0.969
322870.653 3076050.808 0.962
322870.565 3076050.684 0.921
322870.450 3076050.574 0.932
322870.324 3076050.467 0.928
322870.131 3076050.359 0.890
322869.950 3076050.235 0.928
322869.847 3076050.142 0.925
322869.792 3076050.027 0.908
322869.760 3076049.947 0.885
322869.631 3076049.823 0.890
322869.489 3076049.698 0.878
322869.328 3076049.578 0.845
322869.155 3076049.408 0.878
322869.002 3076049.256 0.867
322868.920 3076049.122 0.819
322868.811 3076048.950 0.849
322868.706 3076048.805 0.852
322868.564 3076048.702 0.806
322868.436 3076048.546 0.854
322868.307 3076048.413 0.848
322868.228 3076048.275 0.808
322868.125 3076048.150 0.824
322868.006 3076048.010 0.826
322867.849 3076047.908 0.780
322867.730 3076047.813 0.815
322867.583 3076047.708 0.820
322867.480 3076047.591 0.804
322867.429 3076047.488 0.792
322867.333 3076047.362 0.800
322867.205 3076047.241 0.796
322867.059 3076047.155 0.756
322866.902 3076047.038 0.801
322866.783 3076046.942 0.801
322866.702 3076046.821 0.761
322866.662 3076046.717 0.756
322866.552 3076046.580 0.767
322866.422 3076046.463 0.740
322866.297 3076046.366 0.723
322866.148 3076046.231 0.755
322866.048 3076046.098 0.741
322866.016 3076045.967 0.704
322865.930 3076045.817 0.721
322865.830 3076045.686 0.710
322865.703 3076045.577 0.668
322865.558 3076045.449 0.693
322865.429 3076045.320 0.693
322865.365 3076045.181 0.641
322865.298 3076045.053 0.656
322865.180 3076044.934 0.667
322865.045 3076044.848 0.632
322864.931 3076044.730 0.669
322864.791 3076044.611 0.686
322864.695 3076044.481 0.671
322864.636 3076044.366 0.653
322864.536 3076044.214 0.660
322864.421 3076044.084 0.653
322864.278 3076043.982 0.612
322864.143 3076043.846 0.647
322864.022 3076043.732 0.645
322863.921 3076043.591 0.594
322863.846 3076043.485 0.585
322863.722 3076043.320 0.604
322863.557 3076043.188 0.562
322863.408 3076043.074 0.570
322863.218 3076042.940 0.586
322863.063 3076042.798 0.557
322862.940 3076042.677 0.530
322862.764 3076042.513 0.540
322862.599 3076042.373 0.497
322862.429 3076042.227 0.536
322862.240 3076042.086 0.530
322862.119 3076041.928 0.488
322862.039 3076041.819 0.485
322861.923 3076041.650 0.497
322861.790 3076041.524 0.444
322861.682 3076041.402 0.456
322861.529 3076041.278 0.457
322861.410 3076041.113 0.431
322861.327 3076041.005 0.409
322861.200 3076040.839 0.430
322861.057 3076040.716 0.389
322860.932 3076040.605 0.400
322860.750 3076040.462 0.425
322860.606 3076040.313 0.402
322860.515 3076040.197 0.384
322860.386 3076040.035 0.399
322860.241 3076039.905 0.373
322860.117 3076039.804 0.386
322859.937 3076039.682 0.394
322859.798 3076039.531 0.364
322859.741 3076039.416 0.359
322859.627 3076039.251 0.368
322859.483 3076039.109 0.339
322859.345 3076039.000 0.320
322859.190 3076038.862 0.355
322859.055 3076038.727 0.337
322858.971 3076038.595 0.313
322858.862 3076038.438 0.341
322858.748 3076038.298 0.351
322858.590 3076038.184 0.323
322858.449 3076038.060 0.369
322858.296 3076037.941 0.387
322858.174 3076037.792 0.360
322858.080 3076037.660 0.375
322857.976 3076037.505 0.387
322857.843 3076037.364 0.368
322857.701 3076037.262 0.362
322857.541 3076037.139 0.398
322857.435 3076037.026 0.379
322857.363 3076036.927 0.342
322857.261 3076036.792 0.361
322857.136 3076036.679 0.354
322857.011 3076036.595 0.321
322856.865 3076036.498 0.350
322856.733 3076036.398 0.351
322856.639 3076036.273 0.320
322856.560 3076036.156 0.308
322856.435 3076036.017 0.322
322856.290 3076035.907 0.287
322856.149 3076035.805 0.294
322855.989 3076035.699 0.301
322855.911 3076035.574 0.276
322855.881 3076035.473 0.246
322855.784 3076035.326 0.268
322855.668 3076035.217 0.250
322855.537 3076035.110 0.223
322855.429 3076035.008 0.243
322855.335 3076034.916 0.247
322855.277 3076034.791 0.233
322855.268 3076034.678 0.209
322855.187 3076034.539 0.224
322855.081 3076034.425 0.229
322854.956 3076034.344 0.202
322854.821 3076034.249 0.223
322854.710 3076034.165 0.231
322854.642 3076034.079 0.210
322854.587 3076033.996 0.188
322854.491 3076033.893 0.196
322854.370 3076033.801 0.182
322854.230 3076033.744 0.138
322854.069 3076033.653 0.163
322853.947 3076033.570 0.167
322853.854 3076033.456 0.137
322853.806 3076033.352 0.114
322853.707 3076033.203 0.124
322853.598 3076033.074 0.116
322853.473 3076032.968 0.092
322853.328 3076032.827 0.121
322853.228 3076032.689 0.122
322853.224 3076032.588 0.086
322853.167 3076032.471 0.093
322853.093 3076032.363 0.095
322852.975 3076032.288 0.077
322852.893 3076032.192 0.106
322852.864 3076032.148 0.110
322852.870 3076032.131 0.109
322852.881 3076032.119 0.114
322852.911 3076032.117 0.115
322852.962 3076032.111 0.116
322852.996 3076032.108 0.115
322853.024 3076032.107 0.117
322853.010 3076032.117 0.113
322852.991 3076032.100 0.118
322852.992 3076032.074 0.124
322853.005 3076032.062 0.118
322852.948 3076032.070 0.114
322852.884 3076032.102 0.097
322852.797 3076032.112 0.092
322852.735 3076032.126 0.087
322852.679 3076032.089 0.087
322852.634 3076032.030 0.086
322852.638 3076031.952 0.062
322852.594 3076031.863 0.057
322852.498 3076031.789 0.075
322852.394 3076031.746 0.064
322852.284 3076031.720 0.030
322852.166 3076031.640 0.050
322852.064 3076031.564 0.054
322851.996 3076031.453 0.045
322851.946 3076031.350 0.018
322851.864 3076031.226 0.023
322851.763 3076031.099 0.017
322851.639 3076030.997 -0.018
322851.506 3076030.870 0.021
322851.403 3076030.761 0.025
322851.407 3076030.667 -0.007
322851.393 3076030.577 -0.013
322851.365 3076030.488 -0.003
322851.308 3076030.421 0.011
322851.236 3076030.380 0.012
322851.156 3076030.343 0.013
322851.111 3076030.317 0.025
322851.058 3076030.287 0.022
322851.003 3076030.221 0.016
322850.973 3076030.126 -0.006
322850.946 3076030.030 -0.008
322850.892 3076029.937 0.002
322850.803 3076029.856 0.006
322850.670 3076029.799 -0.002
322850.548 3076029.797 -0.022
322850.423 3076029.756 -0.029
322850.331 3076029.700 -0.029
322850.257 3076029.603 -0.046
322850.220 3076029.500 -0.080
322850.095 3076029.371 -0.058
322849.955 3076029.240 -0.058
322849.803 3076029.132 -0.090
322849.667 3076029.012 -0.066
322849.527 3076028.895 -0.068
322849.448 3076028.763 -0.108
322849.390 3076028.658 -0.116
322849.284 3076028.519 -0.110
322849.147 3076028.417 -0.148
322849.023 3076028.322 -0.133
322848.854 3076028.211 -0.121
322848.716 3076028.071 -0.133
322848.622 3076027.950 -0.167
322848.482 3076027.800 -0.155
322848.328 3076027.669 -0.172
322848.163 3076027.573 -0.204
322847.982 3076027.424 -0.167
322847.854 3076027.290 -0.168
322847.790 3076027.164 -0.210
322847.687 3076027.032 -0.192
322847.581 3076026.907 -0.189
322847.442 3076026.796 -0.233
322847.320 3076026.670 -0.200
322847.194 3076026.555 -0.197
322847.093 3076026.403 -0.229
322847.038 3076026.303 -0.250
322846.927 3076026.146 -0.230
322846.801 3076026.032 -0.265
322846.683 3076025.934 -0.288
322846.535 3076025.818 -0.270
322846.420 3076025.695 -0.279
322846.350 3076025.567 -0.323
322846.283 3076025.457 -0.318
322846.173 3076025.368 -0.317
322846.025 3076025.307 -0.344
322845.898 3076025.234 -0.348
322845.779 3076025.178 -0.337
322845.711 3076025.100 -0.340
322845.691 3076025.010 -0.363
322845.690 3076024.929 -0.398
322845.615 3076024.812 -0.379
322845.525 3076024.700 -0.374
322845.431 3076024.582 -0.355
322845.332 3076024.491 -0.346
322845.253 3076024.367 -0.352
322845.260 3076024.276 -0.359
322845.214 3076024.140 -0.349
322845.132 3076024.045 -0.370
322845.030 3076023.948 -0.380
322844.926 3076023.831 -0.371
322844.843 3076023.717 -0.368
322844.841 3076023.613 -0.401
322844.820 3076023.513 -0.398
322844.786 3076023.422 -0.379
322844.700 3076023.350 -0.386
322844.594 3076023.308 -0.405
322844.494 3076023.264 -0.407
322844.420 3076023.228 -0.410
322844.383 3076023.179 -0.408
322844.385 3076023.115 -0.417
322844.388 3076023.051 -0.420
322844.364 3076022.961 -0.424
322844.337 3076022.870 -0.414
322844.260 3076022.795 -0.427
322844.144 3076022.750 -0.452
322844.020 3076022.673 -0.441
322843.954 3076022.631 -0.451
322843.949 3076022.579 -0.449
322843.984 3076022.519 -0.459
322844.062 3076022.474 -0.491
322844.047 3076022.405 -0.490
322844.015 3076022.334 -0.473
322843.929 3076022.301 -0.478
322843.852 3076022.251 -0.476
322843.799 3076022.202 -0.476
322843.799 3076022.140 -0.482
322843.868 3076022.093 -0.498
322843.943 3076022.031 -0.497
322843.998 3076021.952 -0.489
322844.069 3076021.835 -0.474
322844.045 3076021.736 -0.492
322843.994 3076021.622 -0.534
322843.949 3076021.496 -0.515
322843.915 3076021.312 -0.508
322843.972 3076021.287 -0.494
322844.127 3076021.283 -0.491
322844.617 3076020.842 -0.468
322844.725 3076020.823 -0.469
322844.743 3076020.849 -0.477
322844.775 3076020.906 -0.488
322844.790 3076020.953 -0.486
322844.847 3076020.948 -0.491
322844.888 3076020.952 -0.476
322844.893 3076020.963 -0.473
322844.879 3076020.936 -0.479
322844.878 3076020.936 -0.478
322844.881 3076020.930 -0.483
322844.884 3076020.926 -0.485
322844.881 3076020.920 -0.481
322844.882 3076020.917 -0.484
322844.876 3076020.918 -0.490
322844.876 3076020.917 -0.487
