322880.918 3076061.318 2.390
322880.936 3076061.295 2.390
322880.926 3076061.306 2.390
322880.939 3076061.288 2.390
322880.941 3076061.284 2.390
322880.938 3076061.280 2.390
322880.899 3076061.323 2.390
322880.890 3076061.332 2.390
322880.868 3076061.333 2.390
322880.807 3076061.300 2.390
322880.759 3076061.280 2.389
322880.730 3076061.256 2.389
322880.718 3076061.208 2.388
322880.760 3076061.155 2.388
322880.743 3076061.076 2.387
322880.714 3076061.010 2.387
322880.626 3076060.952 2.385
322880.513 3076060.923 2.385
322880.372 3076060.879 2.379
322880.264 3076060.831 2.368
322880.209 3076060.751 2.341
322880.237 3076060.679 2.331
322880.158 3076060.618 2.288
322880.066 3076060.564 2.243
322880.004 3076060.487 2.205
322879.897 3076060.578 2.196
322879.951 3076060.465 2.184
322879.867 3076060.562 2.183
322879.871 3076060.534 2.178
322879.886 3076060.478 2.169
322879.931 3076060.394 2.161
322879.892 3076060.311 2.129
322879.822 3076060.233 2.083
322879.759 3076060.198 2.044
322879.659 3076060.175 1.990
322879.533 3076060.162 1.945
322879.437 3076060.125 1.920
322879.355 3076060.089 1.900
322879.316 3076060.027 1.885
322879.282 3076059.964 1.873
322879.214 3076059.869 1.855
322879.125 3076059.815 1.840
322879.003 3076059.776 1.825
322878.899 3076059.693 1.810
322878.834 3076059.625 1.800
322878.802 3076059.559 1.792
322878.715 3076059.472 1.773
322878.650 3076059.394 1.755
322878.544 3076059.321 1.726
322878.480 3076059.268 1.706
322878.370 3076059.152 1.672
322878.314 3076059.048 1.657
322878.296 3076058.966 1.650
322878.272 3076058.886 1.644
322878.228 3076058.815 1.637
322878.139 3076058.760 1.626
322878.024 3076058.711 1.608
322877.918 3076058.618 1.580
322877.821 3076058.529 1.558
322877.792 3076058.435 1.546
322877.761 3076058.344 1.536
322877.640 3076058.235 1.521
322877.502 3076058.132 1.514
322877.365 3076058.029 1.516
322877.233 3076057.916 1.511
322877.129 3076057.805 1.505
322877.144 3076057.718 1.503
322877.063 3076057.620 1.497
322877.000 3076057.513 1.491
322876.867 3076057.447 1.484
322876.722 3076057.398 1.476
322876.606 3076057.326 1.468
322876.555 3076057.260 1.464
322876.550 3076057.168 1.461
322876.578 3076057.090 1.460
322876.530 3076056.980 1.453
322876.466 3076056.878 1.446
322876.374 3076056.790 1.437
322876.260 3076056.723 1.432
322876.149 3076056.608 1.429
322876.081 3076056.499 1.429
322876.097 3076056.412 1.429
322876.060 3076056.315 1.428
322876.034 3076056.214 1.427
322875.960 3076056.132 1.425
322875.861 3076056.063 1.420
322875.747 3076055.992 1.410
322875.647 3076055.899 1.397
322875.607 3076055.798 1.387
322875.627 3076055.703 1.381
322875.559 3076055.582 1.364
322875.466 3076055.516 1.349
322875.343 3076055.458 1.335
322875.233 3076055.382 1.324
322875.146 3076055.320 1.315
322875.093 3076055.231 1.307
322875.061 3076055.131 1.299
322874.946 3076055.028 1.283
322874.842 3076054.909 1.269
322874.698 3076054.811 1.260
322874.563 3076054.712 1.250
322874.425 3076054.601 1.239
322874.338 3076054.504 1.230
322874.279 3076054.406 1.222
322874.171 3076054.280 1.209
322874.055 3076054.203 1.203
322873.946 3076054.126 1.201
322873.823 3076054.034 1.200
322873.717 3076053.939 1.197
322873.635 3076053.831 1.191
322873.604 3076053.730 1.184
322873.472 3076053.608 1.167
322873.316 3076053.501 1.149
322873.172 3076053.425 1.142
322872.999 3076053.272 1.140
322872.892 3076053.133 1.132
322872.826 3076052.995 1.123
322872.683 3076052.853 1.109
322872.569 3076052.735 1.097
322872.435 3076052.629 1.085
322872.298 3076052.488 1.076
322872.149 3076052.338 1.065
322872.059 3076052.188 1.052
322871.950 3076052.061 1.040
322871.829 3076051.928 1.025
322871.682 3076051.807 1.010
322871.574 3076051.683 1.002
322871.441 3076051.550 0.992
322871.326 3076051.418 0.982
322871.235 3076051.318 0.975
322871.127 3076051.202 0.967
322870.991 3076051.116 0.962
322870.885 3076051.015 0.959
322870.745 3076050.921 0.956
322870.653 3076050.808 0.950
322870.565 3076050.684 0.940
322870.450 3076050.574 0.930
322870.324 3076050.467 0.920
322870.131 3076050.359 0.913
322869.950 3076050.235 0.914
322869.847 3076050.142 0.911
322869.792 3076050.027 0.906
322869.760 3076049.947 0.902
322869.631 3076049.823 0.889
322869.489 3076049.698 0.874
322869.328 3076049.578 0.864
322869.155 3076049.408 0.863
322869.002 3076049.256 0.853
322868.920 3076049.122 0.845
322868.811 3076048.950 0.841
322868.706 3076048.805 0.837
322868.564 3076048.702 0.835
322868.436 3076048.546 0.837
322868.307 3076048.413 0.834
322868.228 3076048.275 0.828
322868.125 3076048.150 0.820
322868.006 3076048.010 0.812
322867.849 3076047.908 0.807
322867.730 3076047.813 0.807
322867.583 3076047.708 0.808
322867.480 3076047.591 0.805
322867.429 3076047.488 0.801
322867.333 3076047.362 0.795
322867.205 3076047.241 0.787
322867.059 3076047.155 0.784
322866.902 3076047.038 0.785
322866.783 3076046.942 0.781
322866.702 3076046.821 0.774
322866.662 3076046.717 0.767
322866.552 3076046.580 0.755
322866.422 3076046.463 0.745
322866.297 3076046.366 0.740
322866.148 3076046.231 0.736
322866.048 3076046.098 0.730
322866.016 3076045.967 0.725
322865.930 3076045.817 0.713
322865.830 3076045.686 0.701
322865.703 3076045.577 0.691
322865.558 3076045.449 0.683
322865.429 3076045.320 0.673
322865.365 3076045.181 0.665
322865.298 3076045.053 0.658
322865.180 3076044.934 0.654
322865.045 3076044.848 0.656
322864.931 3076044.730 0.663
322864.791 3076044.611 0.670
322864.695 3076044.481 0.668
322864.636 3076044.366 0.664
322864.536 3076044.214 0.655
322864.421 3076044.084 0.644
322864.278 3076043.982 0.637
322864.143 3076043.846 0.634
322864.022 3076043.732 0.624
322863.921 3076043.591 0.609
322863.846 3076043.485 0.599
322863.722 3076043.320 0.587
322863.557 3076043.188 0.576
322863.408 3076043.074 0.573
322863.218 3076042.940 0.571
322863.063 3076042.798 0.556
322862.940 3076042.677 0.543
322862.764 3076042.513 0.527
322862.599 3076042.373 0.519
322862.429 3076042.227 0.523
322862.240 3076042.086 0.515
322862.119 3076041.928 0.499
322862.039 3076041.819 0.491
322861.923 3076041.650 0.477
322861.790 3076041.524 0.464
322861.682 3076041.402 0.455
322861.529 3076041.278 0.445
322861.410 3076041.113 0.431
322861.327 3076041.005 0.424
322861.200 3076040.839 0.413
322861.057 3076040.716 0.405
322860.932 3076040.605 0.405
322860.750 3076040.462 0.409
322860.606 3076040.313 0.402
322860.515 3076040.197 0.395
322860.386 3076040.035 0.388
322860.241 3076039.905 0.385
322860.117 3076039.804 0.384
322859.937 3076039.682 0.380
322859.798 3076039.531 0.370
322859.741 3076039.416 0.365
322859.627 3076039.251 0.356
322859.483 3076039.109 0.343
322859.345 3076039.000 0.337
322859.190 3076038.862 0.338
322859.055 3076038.727 0.334
322858.971 3076038.595 0.332
322858.862 3076038.438 0.335
322858.748 3076038.298 0.340
322858.590 3076038.184 0.346
322858.449 3076038.060 0.360
322858.296 3076037.941 0.372
322858.174 3076037.792 0.373
322858.080 3076037.660 0.374
322857.976 3076037.505 0.376
322857.843 3076037.364 0.373
322857.701 3076037.262 0.375
322857.541 3076037.139 0.376
322857.435 3076037.026 0.370
322857.363 3076036.927 0.364
322857.261 3076036.792 0.354
322857.136 3076036.679 0.346
322857.011 3076036.595 0.343
322856.865 3076036.498 0.341
322856.733 3076036.398 0.336
322856.639 3076036.273 0.327
322856.560 3076036.156 0.319
322856.435 3076036.017 0.308
322856.290 3076035.907 0.300
322856.149 3076035.805 0.293
322855.989 3076035.699 0.282
322855.911 3076035.574 0.274
322855.881 3076035.473 0.268
322855.784 3076035.326 0.258
322855.668 3076035.217 0.248
322855.537 3076035.110 0.241
322855.429 3076035.008 0.237
322855.335 3076034.916 0.233
322855.277 3076034.791 0.230
322855.268 3076034.678 0.228
322855.187 3076034.539 0.222
322855.081 3076034.425 0.219
322854.956 3076034.344 0.219
322854.821 3076034.249 0.217
322854.710 3076034.165 0.213
322854.642 3076034.079 0.208
322854.587 3076033.996 0.202
322854.491 3076033.893 0.190
322854.370 3076033.801 0.175
322854.230 3076033.744 0.164
322854.069 3076033.653 0.156
322853.947 3076033.570 0.148
322853.854 3076033.456 0.139
322853.806 3076033.352 0.131
322853.707 3076033.203 0.120
322853.598 3076033.074 0.112
322853.473 3076032.968 0.109
322853.328 3076032.827 0.108
322853.228 3076032.689 0.104
322853.224 3076032.588 0.102
322853.167 3076032.471 0.102
322853.093 3076032.363 0.106
322852.975 3076032.288 0.107
322853.034 3076032.110 0.107
322853.029 3076032.111 0.107
322853.024 3076032.107 0.107
322853.010 3076032.117 0.107
322852.996 3076032.108 0.107
322852.991 3076032.100 0.107
322853.005 3076032.062 0.107
322852.962 3076032.111 0.107
322852.911 3076032.117 0.106
322852.948 3076032.070 0.106
322852.864 3076032.148 0.106
322852.881 3076032.119 0.106
322852.870 3076032.131 0.106
322852.884 3076032.102 0.105
322852.797 3076032.112 0.104
322852.735 3076032.126 0.102
322852.679 3076032.089 0.099
322852.634 3076032.030 0.093
322852.638 3076031.952 0.088
322852.594 3076031.863 0.076
322852.498 3076031.789 0.064
322852.394 3076031.746 0.057
322852.284 3076031.720 0.053
322852.166 3076031.640 0.048
322852.064 3076031.564 0.043
322851.996 3076031.453 0.038
322851.946 3076031.350 0.032
322851.864 3076031.226 0.022
322851.763 3076031.099 0.011
322851.639 3076030.997 0.007
322851.506 3076030.870 0.005
322851.403 3076030.761 0.005
322851.407 3076030.667 0.005
322851.393 3076030.577 0.005
322851.365 3076030.488 0.006
322851.308 3076030.421 0.008
322851.236 3076030.380 0.010
322851.156 3076030.343 0.012
322851.111 3076030.317 0.012
322851.058 3076030.287 0.012
322851.003 3076030.221 0.010
322850.973 3076030.126 0.007
322850.946 3076030.030 0.005
322850.892 3076029.937 0.001
322850.803 3076029.856 -0.004
322850.670 3076029.799 -0.010
322850.548 3076029.797 -0.017
322850.423 3076029.756 -0.028
322850.331 3076029.700 -0.038
322850.257 3076029.603 -0.047
322850.220 3076029.500 -0.054
322850.095 3076029.371 -0.062
322849.955 3076029.240 -0.068
322849.803 3076029.132 -0.072
322849.667 3076029.012 -0.076
322849.527 3076028.895 -0.087
322849.448 3076028.763 -0.098
322849.390 3076028.658 -0.107
322849.284 3076028.519 -0.121
322849.147 3076028.417 -0.130
322849.023 3076028.322 -0.132
322848.854 3076028.211 -0.132
322848.716 3076028.071 -0.141
322848.622 3076027.950 -0.151
322848.482 3076027.800 -0.163
322848.328 3076027.669 -0.176
322848.163 3076027.573 -0.183
322847.982 3076027.424 -0.180
322847.854 3076027.290 -0.183
322847.790 3076027.164 -0.189
322847.687 3076027.032 -0.196
322847.581 3076026.907 -0.203
322847.442 3076026.796 -0.208
322847.320 3076026.670 -0.209
322847.194 3076026.555 -0.215
322847.093 3076026.403 -0.226
322847.038 3076026.303 -0.234
322846.927 3076026.146 -0.248
322846.801 3076026.032 -0.262
322846.683 3076025.934 -0.272
322846.535 3076025.818 -0.283
322846.420 3076025.695 -0.295
322846.350 3076025.567 -0.306
322846.283 3076025.457 -0.316
322846.173 3076025.368 -0.326
322846.025 3076025.307 -0.335
322845.898 3076025.234 -0.345
322845.779 3076025.178 -0.353
322845.711 3076025.100 -0.359
322845.691 3076025.010 -0.363
322845.690 3076024.929 -0.366
322845.615 3076024.812 -0.371
322845.525 3076024.700 -0.369
322845.431 3076024.582 -0.360
322845.332 3076024.491 -0.355
322845.253 3076024.367 -0.354
322845.260 3076024.276 -0.355
322845.214 3076024.140 -0.359
322845.132 3076024.045 -0.364
322845.030 3076023.948 -0.371
322844.926 3076023.831 -0.379
322844.843 3076023.717 -0.383
322844.841 3076023.613 -0.385
322844.820 3076023.513 -0.387
322844.786 3076023.422 -0.390
322844.700 3076023.350 -0.396
322844.594 3076023.308 -0.402
322844.494 3076023.264 -0.407
322844.420 3076023.228 -0.411
322844.383 3076023.179 -0.413
322844.385 3076023.115 -0.414
322844.388 3076023.051 -0.416
322844.364 3076022.961 -0.419
322844.337 3076022.870 -0.422
322844.260 3076022.795 -0.432
322844.144 3076022.750 -0.447
322844.020 3076022.673 -0.461
322843.954 3076022.631 -0.467
322844.062 3076022.474 -0.468
322843.949 3076022.579 -0.469
322843.984 3076022.519 -0.470
322844.047 3076022.405 -0.471
322844.015 3076022.334 -0.475
322843.929 3076022.301 -0.477
322843.852 3076022.251 -0.479
322844.893 3076020.963 -0.479
322844.897 3076020.958 -0.479
322844.890 3076020.951 -0.479
322844.888 3076020.952 -0.479
322844.886 3076020.946 -0.479
322844.879 3076020.936 -0.480
322844.878 3076020.936 -0.480
322844.881 3076020.930 -0.480
322844.884 3076020.926 -0.480
322844.881 3076020.920 -0.480
322844.882 3076020.917 -0.480
322843.799 3076022.202 -0.480
322844.069 3076021.835 -0.480
322843.799 3076022.140 -0.480
322844.790 3076020.953 -0.480
322844.775 3076020.906 -0.481
322844.045 3076021.736 -0.481
322844.743 3076020.849 -0.482
322844.725 3076020.823 -0.482
322844.617 3076020.842 -0.484
322844.516 3076020.913 -0.485
322844.196 3076021.284 -0.485
322843.949 3076021.496 -0.487
322844.127 3076021.283 -0.487
322844.052 3076021.275 -0.489
322843.916 3076021.380 -0.491
322843.972 3076021.287 -0.491
322843.915 3076021.312 -0.492
