322848.397 3076094.522 2.290
322848.395 3076094.516 2.290
322848.396 3076094.505 2.297
322848.392 3076094.492 2.300
322848.384 3076094.468 2.301
322848.376 3076094.444 2.310
322848.366 3076094.401 2.319
322848.336 3076094.365 2.326
322848.256 3076094.325 2.321
322848.161 3076094.311 2.308
322848.054 3076094.262 2.336
322847.944 3076094.214 2.348
322847.868 3076094.141 2.334
322847.868 3076094.061 2.309
322847.839 3076093.978 2.278
322847.758 3076093.856 2.296
322847.641 3076093.764 2.269
322847.529 3076093.682 2.269
322847.428 3076093.607 2.289
322847.342 3076093.548 2.287
322847.285 3076093.458 2.291
322847.278 3076093.380 2.236
322847.208 3076093.259 2.256
322847.123 3076093.155 2.277
322847.009 3076093.075 2.254
322846.912 3076093.033 2.228
322846.786 3076092.921 2.257
322846.683 3076092.830 2.270
322846.643 3076092.728 2.267
322846.574 3076092.635 2.291
322846.547 3076092.536 2.292
322846.447 3076092.437 2.297
322846.332 3076092.361 2.286
322846.231 3076092.293 2.320
322846.131 3076092.216 2.325
322846.106 3076092.142 2.278
322846.077 3076092.052 2.280
322846.053 3076091.980 2.289
322845.947 3076091.917 2.294
322845.802 3076091.867 2.282
322845.679 3076091.795 2.305
322845.565 3076091.706 2.321
322845.507 3076091.632 2.318
322845.553 3076091.601 2.314
322845.535 3076091.525 2.328
322845.497 3076091.468 2.333
322845.429 3076091.467 2.314
322845.352 3076091.439 2.313
322845.268 3076091.390 2.299
322845.308 3076091.353 2.293
322845.300 3076091.344 2.259
322845.264 3076091.358 2.214
322845.220 3076091.326 2.225
322845.230 3076091.257 2.086
322845.225 3076091.220 2.087
322845.194 3076091.167 2.088
322845.149 3076091.106 2.077
322845.099 3076091.092 2.029
322845.064 3076091.068 1.996
322844.988 3076091.009 1.993
322844.913 3076090.942 1.934
322844.870 3076090.896 1.792
322844.814 3076090.852 1.814
322844.703 3076090.798 1.801
322844.574 3076090.762 1.788
322844.404 3076090.751 1.810
322844.274 3076090.729 1.822
322844.212 3076090.695 1.832
322844.228 3076090.668 1.838
322844.206 3076090.649 1.830
322844.118 3076090.622 1.821
322843.920 3076090.616 1.787
322843.729 3076090.632 1.766
322843.713 3076090.645 1.766
322843.644 3076090.609 1.755
322843.602 3076090.564 1.714
322843.568 3076090.500 1.668
322843.465 3076090.433 1.669
322843.346 3076090.359 1.669
322843.225 3076090.303 1.662
322843.093 3076090.221 1.659
322842.978 3076090.128 1.656
322842.949 3076090.013 1.595
322842.907 3076089.876 1.542
322842.839 3076089.710 1.567
322842.676 3076089.531 1.549
322842.510 3076089.335 1.598
322842.431 3076089.166 1.592
322842.474 3076089.139 1.574
322842.499 3076089.015 1.583
322842.527 3076088.887 1.593
322842.502 3076088.800 1.567
322842.525 3076088.682 1.586
322842.595 3076088.680 1.593
322842.669 3076088.688 1.593
322842.774 3076088.667 1.583
322842.824 3076088.623 1.591
322842.854 3076088.606 1.595
322842.862 3076088.581 1.595
322842.829 3076088.514 1.611
322842.738 3076088.450 1.597
322842.589 3076088.418 1.554
322842.494 3076088.321 1.573
322842.428 3076088.229 1.567
322842.427 3076088.139 1.545
322842.457 3076088.061 1.500
322842.398 3076087.934 1.521
322842.310 3076087.823 1.518
322842.195 3076087.751 1.461
322842.090 3076087.632 1.483
322841.979 3076087.501 1.483
322841.974 3076087.385 1.440
322841.952 3076087.270 1.417
322841.868 3076087.114 1.435
322841.749 3076087.024 1.402
322841.640 3076086.916 1.404
322841.535 3076086.796 1.423
322841.499 3076086.678 1.404
322841.451 3076086.568 1.401
322841.375 3076086.449 1.399
322841.258 3076086.355 1.378
322841.110 3076086.286 1.319
322840.971 3076086.180 1.358
322840.912 3076086.076 1.348
322840.892 3076085.954 1.318
322840.807 3076085.832 1.335
322840.751 3076085.705 1.353
322840.650 3076085.605 1.339
322840.522 3076085.536 1.299
322840.396 3076085.434 1.314
322840.314 3076085.343 1.312
322840.294 3076085.239 1.275
322840.288 3076085.149 1.253
322840.224 3076085.017 1.273
322840.120 3076084.929 1.241
322840.005 3076084.838 1.225
322839.874 3076084.727 1.245
322839.799 3076084.604 1.233
322839.794 3076084.495 1.199
322839.731 3076084.364 1.213
322839.670 3076084.259 1.219
322839.556 3076084.188 1.176
322839.451 3076084.097 1.187
322839.361 3076084.007 1.192
322839.329 3076083.912 1.185
322839.345 3076083.835 1.158
322839.281 3076083.727 1.156
322839.227 3076083.632 1.171
322839.128 3076083.560 1.145
322839.017 3076083.488 1.132
322838.906 3076083.395 1.139
322838.846 3076083.308 1.133
322838.826 3076083.210 1.115
322838.788 3076083.123 1.098
322838.739 3076083.015 1.112
322838.632 3076082.936 1.083
322838.514 3076082.855 1.062
322838.393 3076082.744 1.092
322838.318 3076082.660 1.092
322838.279 3076082.558 1.066
322838.233 3076082.483 1.047
322838.176 3076082.404 1.049
322838.070 3076082.369 1.014
322837.956 3076082.300 1.035
322837.827 3076082.227 1.042
322837.718 3076082.118 1.030
322837.681 3076082.019 0.987
322837.600 3076081.899 1.007
322837.496 3076081.803 1.012
322837.340 3076081.738 0.975
322837.202 3076081.659 0.989
322837.090 3076081.594 0.995
322837.044 3076081.501 0.988
322837.015 3076081.403 0.952
322836.944 3076081.299 0.953
322836.867 3076081.189 0.970
322836.755 3076081.113 0.945
322836.622 3076081.028 0.907
322836.500 3076080.907 0.946
322836.403 3076080.806 0.941
322836.361 3076080.679 0.902
322836.306 3076080.550 0.907
322836.240 3076080.411 0.926
322836.118 3076080.298 0.896
322836.010 3076080.200 0.899
322835.886 3076080.082 0.911
322835.826 3076079.961 0.897
322835.818 3076079.862 0.860
322835.749 3076079.730 0.883
322835.679 3076079.622 0.892
322835.569 3076079.518 0.873
322835.485 3076079.442 0.884
322835.397 3076079.352 0.890
322835.337 3076079.247 0.886
322835.301 3076079.122 0.855
322835.273 3076079.021 0.844
322835.208 3076078.891 0.863
322835.095 3076078.786 0.837
322834.974 3076078.700 0.802
322834.872 3076078.593 0.832
322834.793 3076078.494 0.829
322834.780 3076078.373 0.814
322834.769 3076078.269 0.797
322834.718 3076078.128 0.813
322834.631 3076078.004 0.791
322834.516 3076077.913 0.752
322834.390 3076077.784 0.791
322834.311 3076077.668 0.783
322834.315 3076077.556 0.736
322834.270 3076077.432 0.744
322834.219 3076077.316 0.755
322834.113 3076077.227 0.717
322833.999 3076077.129 0.724
322833.866 3076076.999 0.742
322833.808 3076076.854 0.712
322833.784 3076076.744 0.701
322833.716 3076076.569 0.723
322833.634 3076076.415 0.714
322833.543 3076076.278 0.681
322833.432 3076076.067 0.723
322833.388 3076075.882 0.694
322833.412 3076075.755 0.654
322833.383 3076075.562 0.681
322833.334 3076075.401 0.655
322833.238 3076075.268 0.590
322833.152 3076075.078 0.636
322833.093 3076074.907 0.616
322833.074 3076074.743 0.567
322833.052 3076074.567 0.595
322832.997 3076074.399 0.585
322832.900 3076074.242 0.578
322832.780 3076074.034 0.617
322832.677 3076073.858 0.617
322832.670 3076073.715 0.604
322832.638 3076073.517 0.646
322832.598 3076073.349 0.671
322832.487 3076073.199 0.644
322832.330 3076073.068 0.688
322832.175 3076072.921 0.696
322832.111 3076072.777 0.660
322832.068 3076072.639 0.705
322832.003 3076072.490 0.717
322831.861 3076072.356 0.687
322831.706 3076072.261 0.736
322831.536 3076072.147 0.745
322831.410 3076072.020 0.722
322831.340 3076071.919 0.722
322831.203 3076071.761 0.746
322831.059 3076071.666 0.736
322830.920 3076071.675 0.730
322830.757 3076071.635 0.750
322830.616 3076071.585 0.736
322830.473 3076071.523 0.681
322830.311 3076071.462 0.702
322830.102 3076071.474 0.677
322829.906 3076071.532 0.639
322829.700 3076071.539 0.670
322829.545 3076071.518 0.651
322829.422 3076071.477 0.589
322829.238 3076071.465 0.628
322829.078 3076071.500 0.579
322828.927 3076071.543 0.569
322828.717 3076071.590 0.603
322828.543 3076071.586 0.571
322828.400 3076071.562 0.533
322828.212 3076071.543 0.565
322828.048 3076071.556 0.546
322827.931 3076071.587 0.516
322827.736 3076071.611 0.550
322827.568 3076071.601 0.531
322827.482 3076071.557 0.476
322827.328 3076071.515 0.488
322827.150 3076071.475 0.463
322826.968 3076071.452 0.434
322826.746 3076071.377 0.466
322826.582 3076071.271 0.437
322826.503 3076071.148 0.414
322826.360 3076071.003 0.437
322826.211 3076070.877 0.410
322826.064 3076070.783 0.379
322825.899 3076070.630 0.399
322825.789 3076070.495 0.353
322825.719 3076070.391 0.346
322825.579 3076070.260 0.348
322825.432 3076070.162 0.308
322825.314 3076070.061 0.328
322825.150 3076069.943 0.336
322825.033 3076069.802 0.304
322824.972 3076069.698 0.290
322824.861 3076069.569 0.298
322824.721 3076069.474 0.269
322824.607 3076069.391 0.252
322824.466 3076069.282 0.276
322824.335 3076069.165 0.262
322824.237 3076069.043 0.231
322824.137 3076068.925 0.246
322824.007 3076068.815 0.243
322823.846 3076068.729 0.201
322823.693 3076068.620 0.238
322823.543 3076068.529 0.235
322823.440 3076068.401 0.192
322823.345 3076068.299 0.194
322823.220 3076068.171 0.204
322823.076 3076068.068 0.165
322822.934 3076067.966 0.184
322822.751 3076067.849 0.185
322822.635 3076067.721 0.138
322822.551 3076067.612 0.131
322822.449 3076067.482 0.137
322822.292 3076067.380 0.113
322822.149 3076067.286 0.119
322821.968 3076067.164 0.140
322821.841 3076067.023 0.101
322821.762 3076066.915 0.085
322821.634 3076066.783 0.090
322821.495 3076066.685 0.052
322821.348 3076066.594 0.033
322821.162 3076066.470 0.064
322821.036 3076066.355 0.035
322820.941 3076066.249 0.004
322820.807 3076066.122 0.022
322820.662 3076066.012 0.009
322820.519 3076065.930 -0.008
322820.346 3076065.829 0.026
322820.202 3076065.726 0.016
322820.104 3076065.604 -0.028
322819.994 3076065.491 -0.015
322819.876 3076065.384 -0.011
322819.739 3076065.307 -0.043
322819.603 3076065.220 -0.023
322819.477 3076065.138 -0.005
322819.385 3076065.041 -0.023
322819.327 3076064.940 -0.051
322819.212 3076064.820 -0.036
322819.094 3076064.704 -0.020
322818.958 3076064.619 -0.046
322818.786 3076064.548 -0.020
322818.642 3076064.470 -0.012
322818.542 3076064.342 -0.022
322818.511 3076064.219 -0.044
322818.447 3076064.077 -0.038
322818.375 3076063.942 -0.037
322818.282 3076063.829 -0.061
322818.182 3076063.707 -0.050
322818.081 3076063.564 -0.024
322818.049 3076063.435 -0.043
322818.073 3076063.332 -0.058
322818.057 3076063.192 -0.054
322817.995 3076063.041 -0.041
322817.900 3076062.925 -0.075
322817.796 3076062.783 -0.043
322817.708 3076062.639 -0.027
322817.704 3076062.504 -0.068
322817.721 3076062.383 -0.067
322817.703 3076062.229 -0.051
322817.649 3076062.068 -0.061
322817.552 3076061.943 -0.100
322817.462 3076061.783 -0.070
322817.401 3076061.633 -0.074
322817.400 3076061.499 -0.120
322817.390 3076061.349 -0.111
322817.345 3076061.192 -0.094
322817.263 3076061.076 -0.138
322817.158 3076060.941 -0.117
322817.059 3076060.793 -0.106
322817.023 3076060.640 -0.131
322817.049 3076060.518 -0.130
322817.021 3076060.348 -0.115
322816.962 3076060.189 -0.135
322816.863 3076060.077 -0.179
322816.769 3076059.929 -0.138
322816.686 3076059.801 -0.137
322816.630 3076059.643 -0.173
322816.592 3076059.516 -0.154
322816.524 3076059.365 -0.153
322816.404 3076059.240 -0.190
322816.273 3076059.146 -0.197
322816.146 3076059.039 -0.177
322816.061 3076058.933 -0.197
322816.018 3076058.809 -0.225
322815.942 3076058.687 -0.209
322815.844 3076058.579 -0.213
322815.718 3076058.456 -0.229
322815.572 3076058.328 -0.228
322815.456 3076058.178 -0.207
322815.385 3076058.028 -0.229
322815.374 3076057.919 -0.250
322815.354 3076057.793 -0.251
322815.314 3076057.678 -0.256
322815.232 3076057.551 -0.269
322815.073 3076057.448 -0.282
322814.941 3076057.320 -0.278
322814.880 3076057.191 -0.297
322814.894 3076057.086 -0.319
322814.858 3076056.954 -0.305
322814.778 3076056.856 -0.325
322814.651 3076056.788 -0.343
322814.525 3076056.705 -0.328
322814.445 3076056.611 -0.334
322814.398 3076056.493 -0.343
322814.347 3076056.363 -0.329
322814.229 3076056.270 -0.327
322814.084 3076056.256 -0.379
322813.956 3076056.195 -0.360
322813.865 3076056.123 -0.349
322813.848 3076056.025 -0.359
322813.909 3076055.940 -0.363
322813.922 3076055.858 -0.361
322813.916 3076055.802 -0.353
322813.887 3076055.829 -0.375
322813.870 3076055.840 -0.379
322813.872 3076055.821 -0.377
322813.854 3076055.770 -0.374
322813.835 3076055.686 -0.368
322813.820 3076055.553 -0.386
322813.800 3076055.464 -0.392
322813.774 3076055.390 -0.385
322813.791 3076055.421 -0.376
322813.838 3076055.444 -0.373
322813.875 3076055.441 -0.369
322813.685 3076055.383 -0.349
322813.660 3076055.371 -0.341
322813.671 3076055.381 -0.346
322813.718 3076055.320 -0.363
322813.801 3076055.215 -0.390
322814.040 3076055.081 -0.375
322814.017 3076055.084 -0.370
322814.008 3076055.085 -0.371
322814.001 3076055.075 -0.375
322814.014 3076055.063 -0.378
322813.918 3076055.151 -0.397
322813.826 3076055.234 -0.407
322813.793 3076055.297 -0.392
322813.798 3076055.372 -0.373
322813.818 3076055.403 -0.370
322813.679 3076055.561 -0.398
322813.664 3076055.602 -0.389
322813.624 3076055.699 -0.384
322813.500 3076055.804 -0.365
322813.562 3076055.815 -0.378
322813.460 3076055.877 -0.393
322813.377 3076055.909 -0.387
322813.247 3076055.927 -0.386
322813.207 3076055.928 -0.375
322813.238 3076055.940 -0.373
322813.240 3076055.922 -0.380
322813.213 3076055.879 -0.400
