323056.251 3075910.051 2.470
323056.191 3075910.074 2.471
323056.132 3075910.107 2.472
323056.023 3075910.211 2.472
323056.034 3075910.187 2.472
323056.074 3075910.134 2.473
323055.994 3075910.224 2.473
323056.038 3075910.154 2.473
323055.963 3075910.214 2.473
323055.988 3075910.178 2.473
323056.016 3075910.143 2.473
323056.016 3075910.094 2.473
323056.024 3075910.074 2.474
323056.003 3075910.099 2.474
323055.970 3075910.133 2.474
323056.025 3075910.062 2.474
323055.901 3075910.179 2.474
323055.822 3075910.242 2.474
323055.735 3075910.308 2.474
323055.661 3075910.376 2.474
323055.669 3075910.357 2.474
323055.647 3075910.383 2.474
323055.668 3075910.357 2.474
323055.636 3075910.386 2.474
323055.766 3075910.221 2.474
323055.793 3075910.188 2.474
323055.673 3075910.328 2.474
323055.772 3075910.170 2.473
323055.671 3075910.289 2.473
323055.762 3075910.179 2.473
323055.760 3075910.176 2.473
323055.754 3075910.183 2.473
323055.757 3075910.177 2.473
323055.745 3075910.185 2.473
323055.743 3075910.178 2.473
323055.670 3075910.258 2.473
323055.740 3075910.167 2.473
323055.667 3075910.237 2.473
323055.728 3075910.152 2.473
323055.672 3075910.216 2.473
323055.666 3075910.223 2.473
323055.677 3075910.209 2.473
323055.674 3075910.212 2.473
323055.718 3075910.143 2.472
323055.676 3075910.192 2.472
323055.680 3075910.173 2.472
323055.702 3075910.139 2.472
323055.686 3075910.154 2.472
323055.692 3075910.144 2.472
323055.482 3075910.342 2.471
323055.347 3075910.396 2.467
323055.276 3075910.391 2.462
323055.220 3075910.349 2.451
323055.285 3075910.204 2.442
323055.179 3075910.273 2.432
323055.270 3075910.127 2.424
323055.214 3075910.057 2.392
323055.106 3075909.991 2.363
323054.962 3075909.911 2.320
323054.871 3075909.850 2.301
323054.842 3075909.770 2.293
323054.852 3075909.700 2.289
323054.888 3075909.582 2.284
323054.916 3075909.436 2.277
323054.913 3075909.326 2.270
323054.877 3075909.247 2.263
323054.833 3075909.184 2.255
323054.752 3075909.108 2.246
323054.654 3075909.008 2.235
323054.582 3075908.925 2.227
323054.542 3075908.848 2.222
323054.534 3075908.785 2.219
323054.548 3075908.704 2.216
323054.506 3075908.608 2.206
323054.419 3075908.496 2.183
323054.291 3075908.431 2.158
323054.192 3075908.390 2.145
323054.120 3075908.299 2.137
323054.080 3075908.196 2.132
323054.075 3075908.093 2.128
323054.028 3075907.995 2.121
323053.882 3075907.911 2.103
323053.729 3075907.833 2.083
323053.593 3075907.771 2.067
323053.481 3075907.662 2.052
323053.447 3075907.559 2.045
323053.438 3075907.460 2.038
323053.374 3075907.353 2.026
323053.264 3075907.266 2.009
323053.111 3075907.189 1.991
323052.954 3075907.127 1.983
323052.849 3075907.038 1.982
323052.792 3075906.927 1.982
323052.809 3075906.822 1.981
323052.768 3075906.693 1.978
323052.668 3075906.573 1.969
323052.546 3075906.473 1.958
323052.421 3075906.379 1.947
323052.355 3075906.273 1.939
323052.319 3075906.167 1.933
323052.351 3075906.062 1.930
323052.301 3075905.937 1.918
323052.190 3075905.820 1.890
323052.020 3075905.732 1.850
323051.879 3075905.681 1.822
323051.773 3075905.582 1.799
323051.723 3075905.460 1.782
323051.702 3075905.341 1.769
323051.578 3075905.209 1.747
323051.430 3075905.122 1.733
323051.282 3075905.064 1.724
323051.171 3075904.994 1.717
323051.102 3075904.891 1.714
323051.110 3075904.774 1.713
323051.119 3075904.693 1.713
323051.027 3075904.591 1.711
323050.930 3075904.545 1.707
323050.804 3075904.528 1.702
323050.687 3075904.512 1.697
323050.667 3075904.451 1.695
323050.600 3075904.481 1.693
323050.638 3075904.389 1.692
323050.546 3075904.425 1.690
323050.561 3075904.338 1.688
323050.526 3075904.367 1.688
323050.382 3075904.339 1.682
323050.189 3075904.205 1.669
323050.068 3075904.096 1.670
323050.001 3075904.049 1.667
323049.918 3075904.003 1.662
323049.869 3075904.026 1.661
323049.866 3075903.987 1.659
323049.851 3075903.887 1.652
323049.846 3075903.808 1.646
323049.827 3075903.745 1.640
323049.804 3075903.706 1.636
323049.781 3075903.700 1.634
323049.726 3075903.703 1.630
323049.645 3075903.693 1.625
323049.569 3075903.682 1.622
323049.619 3075903.540 1.620
323049.516 3075903.658 1.619
323049.610 3075903.535 1.619
323049.612 3075903.531 1.619
323049.502 3075903.627 1.618
323049.487 3075903.579 1.617
323049.561 3075903.459 1.616
323049.498 3075903.486 1.615
323049.451 3075903.527 1.615
323049.496 3075903.449 1.615
323049.444 3075903.478 1.614
323049.403 3075903.433 1.611
323049.319 3075903.387 1.606
323049.170 3075903.325 1.594
323049.060 3075903.252 1.592
323048.974 3075903.202 1.592
323048.918 3075903.183 1.593
323048.882 3075903.164 1.593
323048.889 3075903.137 1.593
323048.897 3075903.122 1.593
323048.869 3075903.147 1.593
323048.908 3075903.054 1.593
323048.937 3075902.977 1.592
323048.914 3075902.896 1.592
323048.834 3075902.813 1.589
323048.735 3075902.746 1.583
323048.655 3075902.716 1.577
323048.565 3075902.634 1.571
323048.517 3075902.547 1.566
323048.510 3075902.473 1.562
323048.454 3075902.373 1.555
323048.343 3075902.287 1.544
323048.223 3075902.202 1.535
323048.108 3075902.123 1.530
323048.031 3075901.992 1.528
323047.997 3075901.846 1.527
323047.969 3075901.737 1.525
323047.838 3075901.577 1.516
323047.682 3075901.443 1.497
323047.545 3075901.316 1.483
323047.447 3075901.196 1.473
323047.373 3075901.082 1.463
323047.281 3075900.936 1.452
323047.248 3075900.817 1.447
323047.172 3075900.731 1.442
323047.054 3075900.644 1.435
323046.888 3075900.520 1.418
323046.740 3075900.411 1.411
323046.613 3075900.295 1.406
323046.531 3075900.185 1.399
323046.459 3075900.060 1.391
323046.396 3075899.919 1.386
323046.286 3075899.808 1.382
323046.154 3075899.698 1.375
323046.002 3075899.574 1.367
323045.863 3075899.458 1.365
323045.773 3075899.317 1.362
323045.688 3075899.137 1.357
323045.667 3075899.005 1.355
323045.567 3075898.857 1.355
323045.423 3075898.749 1.344
323045.272 3075898.605 1.321
323045.144 3075898.503 1.310
323045.043 3075898.380 1.301
323044.971 3075898.237 1.288
323044.910 3075898.092 1.275
323044.806 3075897.929 1.261
323044.643 3075897.787 1.245
323044.478 3075897.683 1.234
323044.329 3075897.571 1.229
323044.232 3075897.455 1.221
323044.127 3075897.309 1.206
323044.072 3075897.168 1.195
323043.917 3075897.012 1.182
323043.757 3075896.880 1.169
323043.583 3075896.776 1.161
323043.417 3075896.627 1.156
323043.335 3075896.490 1.149
323043.267 3075896.369 1.143
323043.180 3075896.211 1.137
323043.023 3075896.051 1.126
323042.836 3075895.901 1.104
323042.678 3075895.774 1.100
323042.552 3075895.639 1.097
323042.461 3075895.491 1.089
323042.436 3075895.354 1.084
323042.369 3075895.232 1.080
323042.257 3075895.127 1.076
323042.111 3075895.027 1.067
323041.940 3075894.917 1.059
323041.789 3075894.821 1.056
323041.671 3075894.703 1.051
323041.557 3075894.559 1.042
323041.509 3075894.425 1.037
323041.428 3075894.300 1.033
323041.281 3075894.205 1.023
323041.068 3075894.098 1.005
323040.869 3075894.031 0.999
323040.707 3075893.912 0.991
323040.584 3075893.783 0.982
323040.560 3075893.649 0.978
323040.493 3075893.523 0.974
323040.365 3075893.420 0.967
323040.202 3075893.284 0.950
323040.036 3075893.204 0.942
323039.886 3075893.061 0.938
323039.761 3075892.898 0.929
323039.696 3075892.750 0.924
323039.593 3075892.596 0.925
323039.438 3075892.466 0.920
323039.262 3075892.303 0.900
323039.088 3075892.150 0.889
323038.985 3075892.017 0.884
323038.883 3075891.864 0.879
323038.828 3075891.755 0.878
323038.692 3075891.596 0.879
323038.524 3075891.433 0.869
323038.368 3075891.307 0.863
323038.213 3075891.145 0.865
323038.090 3075890.966 0.862
323038.036 3075890.843 0.861
323037.928 3075890.689 0.862
323037.779 3075890.557 0.856
323037.637 3075890.396 0.840
323037.488 3075890.252 0.833
323037.348 3075890.108 0.825
323037.218 3075889.934 0.813
323037.177 3075889.813 0.810
323037.066 3075889.651 0.812
323036.895 3075889.528 0.807
323036.723 3075889.359 0.783
323036.555 3075889.238 0.773
323036.416 3075889.071 0.760
323036.320 3075888.896 0.746
323036.286 3075888.756 0.741
323036.144 3075888.594 0.741
323035.964 3075888.456 0.731
323035.800 3075888.298 0.710
323035.658 3075888.142 0.698
323035.547 3075887.999 0.689
323035.462 3075887.828 0.680
323035.414 3075887.678 0.678
323035.276 3075887.545 0.676
323035.091 3075887.396 0.656
323034.904 3075887.293 0.635
323034.751 3075887.135 0.617
323034.605 3075886.928 0.602
323034.546 3075886.783 0.602
323034.418 3075886.614 0.606
323034.217 3075886.443 0.599
323034.053 3075886.328 0.600
323033.889 3075886.183 0.611
323033.756 3075886.004 0.616
323033.696 3075885.879 0.621
323033.558 3075885.716 0.634
323033.355 3075885.570 0.637
323033.198 3075885.464 0.637
323033.027 3075885.339 0.645
323032.875 3075885.178 0.647
323032.799 3075885.050 0.651
323032.694 3075884.885 0.664
323032.528 3075884.758 0.674
323032.356 3075884.639 0.677
323032.191 3075884.525 0.684
323032.059 3075884.375 0.679
323031.959 3075884.221 0.663
323031.902 3075884.074 0.653
323031.786 3075883.932 0.645
323031.645 3075883.825 0.638
323031.474 3075883.713 0.619
323031.272 3075883.629 0.602
323031.108 3075883.507 0.592
323030.989 3075883.368 0.578
323030.896 3075883.205 0.564
323030.800 3075883.059 0.555
323030.655 3075882.921 0.546
323030.471 3075882.769 0.524
323030.280 3075882.658 0.510
323030.125 3075882.509 0.505
323030.058 3075882.373 0.496
323029.948 3075882.214 0.479
323029.832 3075882.050 0.465
323029.671 3075881.909 0.449
323029.520 3075881.757 0.426
323029.344 3075881.591 0.411
323029.207 3075881.430 0.398
323029.101 3075881.249 0.382
323029.039 3075881.097 0.374
323028.897 3075880.925 0.366
323028.732 3075880.760 0.346
323028.581 3075880.617 0.324
323028.417 3075880.434 0.306
323028.288 3075880.225 0.288
323028.195 3075880.093 0.279
323028.081 3075879.914 0.278
323027.909 3075879.763 0.273
323027.784 3075879.598 0.261
323027.631 3075879.419 0.253
323027.515 3075879.241 0.243
323027.431 3075879.050 0.232
323027.373 3075878.906 0.229
323027.234 3075878.732 0.225
323027.100 3075878.534 0.210
323026.959 3075878.388 0.200
323026.827 3075878.206 0.195
323026.725 3075878.026 0.181
323026.655 3075877.861 0.167
323026.550 3075877.674 0.157
323026.406 3075877.521 0.146
323026.258 3075877.362 0.126
323026.123 3075877.221 0.116
323025.975 3075877.069 0.111
323025.838 3075876.896 0.101
323025.774 3075876.731 0.094
323025.682 3075876.554 0.092
323025.544 3075876.405 0.085
323025.395 3075876.270 0.077
323025.246 3075876.101 0.073
323025.137 3075875.926 0.062
323025.029 3075875.720 0.040
323024.915 3075875.532 0.031
323024.777 3075875.378 0.023
323024.601 3075875.219 -0.000
323024.438 3075875.083 -0.014
323024.286 3075874.916 -0.024
323024.158 3075874.718 -0.034
323024.077 3075874.549 -0.030
323023.928 3075874.383 -0.023
323023.738 3075874.209 -0.031
323023.549 3075874.084 -0.027
323023.374 3075873.917 -0.025
323023.233 3075873.722 -0.031
323023.136 3075873.553 -0.024
323022.975 3075873.404 -0.019
323022.776 3075873.232 -0.036
323022.586 3075873.095 -0.036
323022.422 3075872.929 -0.040
323022.298 3075872.743 -0.053
323022.171 3075872.579 -0.056
323022.017 3075872.444 -0.058
323021.836 3075872.307 -0.069
323021.654 3075872.205 -0.072
323021.475 3075872.037 -0.075
323021.325 3075871.842 -0.087
323021.216 3075871.685 -0.086
323021.058 3075871.526 -0.083
323020.880 3075871.360 -0.101
323020.704 3075871.220 -0.112
323020.550 3075871.033 -0.119
323020.400 3075870.823 -0.138
323020.285 3075870.642 -0.139
323020.132 3075870.475 -0.128
323019.947 3075870.318 -0.133
323019.788 3075870.204 -0.140
323019.630 3075870.069 -0.143
323019.522 3075869.911 -0.152
323019.464 3075869.729 -0.160
323019.396 3075869.574 -0.164
323019.276 3075869.436 -0.166
323019.122 3075869.315 -0.176
323018.945 3075869.230 -0.186
323018.800 3075869.102 -0.193
323018.706 3075868.948 -0.205
323018.629 3075868.779 -0.217
323018.582 3075868.624 -0.224
323018.476 3075868.482 -0.231
323018.320 3075868.345 -0.245
323018.149 3075868.240 -0.256
323018.001 3075868.107 -0.266
323017.898 3075867.949 -0.276
323017.873 3075867.799 -0.281
323017.803 3075867.647 -0.285
323017.658 3075867.520 -0.290
323017.458 3075867.413 -0.299
323017.274 3075867.327 -0.303
323017.174 3075867.201 -0.307
323017.114 3075867.047 -0.312
323017.086 3075866.896 -0.317
323016.969 3075866.767 -0.322
323016.773 3075866.659 -0.327
323016.619 3075866.615 -0.342
323016.499 3075866.504 -0.365
323016.502 3075866.306 -0.371
323016.437 3075866.377 -0.371
323016.469 3075866.228 -0.373
323016.320 3075866.344 -0.373
323016.311 3075866.354 -0.373
323016.299 3075866.356 -0.373
323016.424 3075866.201 -0.373
323016.287 3075866.360 -0.373
323016.446 3075866.170 -0.373
323016.280 3075866.365 -0.373
323016.272 3075866.370 -0.373
323016.274 3075866.366 -0.373
323016.272 3075866.368 -0.373
323016.268 3075866.367 -0.373
323016.374 3075866.238 -0.373
323016.419 3075866.113 -0.374
323016.368 3075866.139 -0.374
323016.286 3075866.091 -0.373
323016.256 3075866.068 -0.373
323016.281 3075866.029 -0.373
