323128.059 3075896.154 2.526
323128.066 3075896.166 2.523
323128.070 3075896.171 2.526
323128.076 3075896.175 2.520
323128.087 3075896.169 2.476
323128.086 3075896.171 2.455
323128.094 3075896.164 2.438
323128.103 3075896.160 2.415
323128.107 3075896.145 2.421
323128.108 3075896.145 2.416
323128.102 3075896.152 2.410
323128.099 3075896.169 2.401
323128.092 3075896.191 2.396
323128.087 3075896.216 2.417
323128.083 3075896.226 2.418
323128.076 3075896.230 2.425
323128.071 3075896.237 2.437
323128.067 3075896.223 2.458
323128.061 3075896.225 2.482
323128.061 3075896.225 2.497
323128.060 3075896.228 2.515
323128.052 3075896.237 2.540
323128.045 3075896.241 2.560
323128.035 3075896.248 2.583
323128.027 3075896.262 2.606
323128.024 3075896.272 2.621
323128.025 3075896.291 2.629
323128.026 3075896.314 2.635
323128.042 3075896.327 2.637
323128.059 3075896.333 2.618
323128.068 3075896.334 2.566
323128.073 3075896.321 2.536
323128.093 3075896.283 2.499
323128.119 3075896.263 2.463
323128.116 3075896.272 2.458
323128.114 3075896.280 2.456
323128.108 3075896.323 2.477
323128.110 3075896.336 2.513
323128.108 3075896.344 2.544
323128.110 3075896.346 2.567
323128.106 3075896.352 2.588
323128.108 3075896.366 2.620
323128.104 3075896.380 2.637
323128.098 3075896.394 2.653
323128.093 3075896.404 2.669
323128.085 3075896.410 2.673
323128.066 3075896.409 2.670
323128.056 3075896.406 2.678
323128.041 3075896.402 2.669
323128.029 3075896.403 2.656
323128.021 3075896.396 2.648
323128.021 3075896.391 2.655
323128.022 3075896.377 2.721
323128.020 3075896.366 2.735
323128.018 3075896.357 2.737
323128.015 3075896.338 2.723
323128.014 3075896.325 2.721
323128.014 3075896.308 2.716
323128.015 3075896.292 2.715
323128.016 3075896.277 2.717
323128.019 3075896.223 2.715
323128.020 3075896.209 2.719
323128.014 3075896.200 2.744
323128.008 3075896.180 2.773
323128.005 3075896.173 2.780
323128.004 3075896.141 2.757
323128.000 3075896.125 2.751
323128.013 3075896.104 2.734
323128.023 3075896.091 2.718
323128.056 3075896.055 2.647
323128.075 3075896.020 2.623
323128.030 3075896.033 2.605
323128.025 3075896.023 2.601
323128.023 3075896.016 2.602
323128.025 3075896.003 2.596
323128.025 3075895.992 2.592
323128.032 3075895.982 2.596
323128.036 3075895.969 2.602
323128.047 3075895.954 2.591
323128.056 3075895.945 2.585
323128.066 3075895.940 2.578
323128.072 3075895.941 2.584
323128.076 3075895.949 2.590
323128.073 3075895.959 2.601
323128.064 3075895.966 2.607
323128.075 3075895.962 2.626
