323019.614 3075942.887 2.122
323019.613 3075942.884 2.114
323019.609 3075942.866 2.100
323019.482 3075942.793 2.161
323019.467 3075942.816 2.153
323019.555 3075942.859 2.171
323019.562 3075942.870 2.171
323019.558 3075942.873 2.149
323019.584 3075942.871 2.162
323019.586 3075942.866 2.139
323019.568 3075942.852 2.145
323019.547 3075942.810 2.137
323019.544 3075942.762 2.162
323019.525 3075942.692 2.172
323019.476 3075942.737 2.164
323019.481 3075942.770 2.156
323019.477 3075942.777 2.171
323019.519 3075942.703 2.177
323019.492 3075942.657 2.167
323019.388 3075942.592 2.107
323019.360 3075942.510 1.950
323019.290 3075942.618 1.888
323019.134 3075942.849 1.822
323018.997 3075942.961 1.810
323018.899 3075943.046 1.825
323018.841 3075943.054 1.833
323018.791 3075943.050 1.788
323018.731 3075943.019 1.803
323018.678 3075943.025 1.824
323018.673 3075943.023 1.767
323018.695 3075942.970 1.756
323018.719 3075942.924 1.760
323018.780 3075942.900 1.738
323018.745 3075942.822 1.710
323018.637 3075942.764 1.670
323018.515 3075942.753 1.621
323018.478 3075942.736 1.622
323018.517 3075942.678 1.595
323018.541 3075942.593 1.561
323018.571 3075942.556 1.590
323018.500 3075942.602 1.604
323018.548 3075942.600 1.610
323018.557 3075942.657 1.659
323018.475 3075942.730 1.690
323018.479 3075942.780 1.697
323018.526 3075942.814 1.689
323018.564 3075942.842 1.697
323018.556 3075942.848 1.705
323018.500 3075942.832 1.685
323018.400 3075942.828 1.664
323018.295 3075942.807 1.658
323018.194 3075942.786 1.671
323018.106 3075942.729 1.667
323018.078 3075942.655 1.661
323018.051 3075942.548 1.655
323018.078 3075942.455 1.659
323017.996 3075942.379 1.649
323017.870 3075942.298 1.647
323017.696 3075942.241 1.599
323017.569 3075942.147 1.616
323017.509 3075942.043 1.609
323017.464 3075941.934 1.573
323017.535 3075941.844 1.610
323017.442 3075941.727 1.660
323017.331 3075941.626 1.626
323017.228 3075941.565 1.587
323017.143 3075941.481 1.598
323017.094 3075941.390 1.604
323017.052 3075941.272 1.578
323017.039 3075941.157 1.618
323016.968 3075941.048 1.608
323016.845 3075940.943 1.580
323016.722 3075940.876 1.564
323016.619 3075940.805 1.572
323016.537 3075940.712 1.574
323016.485 3075940.627 1.546
323016.482 3075940.520 1.566
323016.454 3075940.422 1.570
323016.348 3075940.342 1.540
323016.236 3075940.293 1.503
323016.151 3075940.230 1.563
323016.091 3075940.162 1.545
323016.045 3075940.069 1.533
323016.011 3075939.971 1.534
323015.896 3075939.856 1.530
323015.751 3075939.733 1.492
323015.623 3075939.680 1.496
323015.480 3075939.586 1.499
323015.385 3075939.495 1.486
323015.343 3075939.390 1.472
323015.288 3075939.288 1.488
323015.111 3075939.190 1.484
323014.943 3075939.153 1.443
323014.846 3075939.160 1.472
323014.733 3075939.091 1.464
323014.648 3075938.983 1.450
323014.591 3075938.885 1.440
323014.544 3075938.793 1.453
323014.424 3075938.729 1.459
323014.253 3075938.666 1.453
323014.080 3075938.628 1.445
323013.937 3075938.556 1.470
323013.833 3075938.451 1.471
323013.757 3075938.324 1.457
323013.681 3075938.215 1.484
323013.560 3075938.105 1.481
323013.408 3075938.011 1.472
323013.317 3075937.946 1.462
323013.204 3075937.817 1.476
323013.151 3075937.665 1.450
323013.118 3075937.496 1.401
323013.108 3075937.335 1.430
323013.027 3075937.170 1.438
323012.918 3075936.990 1.402
323012.771 3075936.852 1.438
323012.683 3075936.676 1.440
323012.642 3075936.506 1.429
323012.647 3075936.396 1.423
323012.582 3075936.206 1.449
323012.436 3075935.991 1.444
323012.272 3075935.837 1.417
323012.107 3075935.665 1.454
323011.995 3075935.504 1.435
323011.932 3075935.349 1.404
323011.918 3075935.218 1.422
323011.814 3075935.081 1.430
323011.666 3075934.965 1.445
323011.502 3075934.861 1.407
323011.353 3075934.744 1.441
323011.247 3075934.607 1.439
323011.163 3075934.448 1.413
323011.115 3075934.309 1.442
323010.991 3075934.158 1.435
323010.806 3075933.982 1.401
323010.635 3075933.882 1.409
323010.507 3075933.740 1.417
323010.397 3075933.596 1.416
323010.341 3075933.487 1.404
323010.228 3075933.344 1.438
323010.060 3075933.222 1.441
323009.886 3075933.088 1.383
323009.750 3075932.988 1.420
323009.630 3075932.862 1.420
323009.526 3075932.738 1.406
323009.508 3075932.625 1.383
323009.408 3075932.479 1.399
323009.269 3075932.339 1.376
323009.101 3075932.208 1.359
323008.932 3075932.090 1.378
323008.811 3075931.948 1.392
323008.722 3075931.797 1.378
323008.697 3075931.657 1.341
323008.590 3075931.493 1.354
323008.433 3075931.347 1.327
323008.280 3075931.236 1.285
323008.148 3075931.125 1.301
323008.034 3075931.000 1.286
323007.949 3075930.854 1.265
323007.875 3075930.715 1.254
323007.757 3075930.544 1.266
323007.590 3075930.399 1.259
323007.422 3075930.236 1.193
323007.263 3075930.097 1.226
323007.150 3075929.952 1.225
323007.069 3075929.782 1.198
323007.032 3075929.644 1.200
323006.905 3075929.474 1.205
323006.738 3075929.344 1.196
323006.562 3075929.209 1.148
323006.400 3075929.090 1.164
323006.283 3075928.958 1.155
323006.163 3075928.833 1.138
323006.100 3075928.708 1.134
323005.965 3075928.565 1.149
323005.785 3075928.449 1.124
323005.630 3075928.317 1.062
323005.484 3075928.218 1.081
323005.363 3075928.093 1.076
323005.254 3075927.953 1.055
323005.172 3075927.829 1.036
323005.068 3075927.696 1.057
323004.923 3075927.600 1.056
323004.774 3075927.454 0.994
323004.612 3075927.347 1.022
323004.474 3075927.216 1.022
323004.372 3075927.078 1.011
323004.283 3075926.947 0.969
323004.173 3075926.797 0.995
323004.010 3075926.669 0.990
323003.851 3075926.569 0.939
323003.684 3075926.475 0.951
323003.539 3075926.347 0.961
323003.409 3075926.200 0.944
323003.352 3075926.059 0.926
323003.251 3075925.918 0.944
323003.108 3075925.806 0.946
323002.934 3075925.659 0.885
323002.776 3075925.528 0.910
323002.655 3075925.371 0.903
323002.546 3075925.182 0.860
323002.463 3075925.029 0.891
323002.318 3075924.874 0.898
323002.141 3075924.723 0.876
323001.987 3075924.596 0.858
323001.850 3075924.449 0.874
323001.736 3075924.280 0.853
323001.691 3075924.161 0.836
323001.612 3075924.019 0.859
323001.486 3075923.890 0.855
323001.341 3075923.724 0.806
323001.186 3075923.591 0.831
323001.070 3075923.434 0.837
323000.981 3075923.246 0.810
323000.983 3075923.133 0.812
323000.890 3075922.960 0.827
323000.722 3075922.779 0.820
323000.558 3075922.653 0.787
323000.419 3075922.473 0.810
323000.338 3075922.288 0.806
323000.302 3075922.132 0.769
323000.248 3075921.976 0.810
323000.099 3075921.817 0.816
322999.943 3075921.612 0.748
322999.800 3075921.460 0.756
322999.689 3075921.297 0.759
322999.604 3075921.125 0.720
322999.544 3075920.980 0.732
322999.433 3075920.838 0.755
322999.284 3075920.722 0.744
322999.124 3075920.561 0.689
322998.985 3075920.419 0.712
322998.881 3075920.262 0.701
322998.799 3075920.090 0.670
322998.736 3075919.941 0.669
322998.639 3075919.781 0.688
322998.468 3075919.651 0.685
322998.316 3075919.536 0.629
322998.156 3075919.389 0.655
322998.018 3075919.205 0.645
322997.935 3075919.057 0.606
322997.804 3075918.876 0.632
322997.620 3075918.716 0.633
322997.461 3075918.561 0.580
322997.304 3075918.395 0.598
322997.190 3075918.218 0.602
322997.106 3075918.043 0.539
322997.007 3075917.856 0.575
322996.825 3075917.680 0.576
322996.649 3075917.508 0.511
322996.459 3075917.343 0.516
322996.314 3075917.152 0.521
322996.213 3075916.987 0.489
322996.107 3075916.797 0.530
322995.905 3075916.590 0.520
322995.738 3075916.434 0.496
322995.573 3075916.250 0.547
322995.427 3075916.058 0.536
322995.361 3075915.894 0.525
322995.273 3075915.723 0.558
322995.123 3075915.579 0.571
322994.949 3075915.406 0.510
322994.773 3075915.242 0.539
322994.668 3075915.066 0.552
322994.600 3075914.877 0.509
322994.513 3075914.703 0.552
322994.324 3075914.541 0.551
322994.139 3075914.369 0.485
322993.953 3075914.229 0.524
322993.794 3075914.062 0.523
322993.710 3075913.897 0.501
322993.612 3075913.731 0.535
322993.470 3075913.599 0.533
322993.307 3075913.427 0.485
322993.136 3075913.262 0.513
322993.022 3075913.099 0.503
322992.924 3075912.901 0.462
322992.864 3075912.730 0.479
322992.720 3075912.549 0.484
322992.537 3075912.370 0.460
322992.375 3075912.226 0.423
322992.213 3075912.047 0.442
322992.076 3075911.853 0.428
322991.998 3075911.692 0.393
322991.864 3075911.502 0.418
322991.653 3075911.348 0.419
322991.468 3075911.221 0.355
322991.284 3075911.067 0.392
322991.126 3075910.901 0.390
322991.028 3075910.749 0.342
322990.875 3075910.575 0.365
322990.687 3075910.443 0.362
322990.491 3075910.301 0.316
322990.296 3075910.172 0.318
322990.137 3075910.020 0.327
322990.012 3075909.854 0.310
322989.950 3075909.720 0.291
322989.827 3075909.556 0.307
322989.650 3075909.412 0.298
322989.482 3075909.260 0.228
322989.311 3075909.099 0.254
322989.198 3075908.951 0.245
322989.108 3075908.773 0.203
322989.050 3075908.603 0.213
322988.904 3075908.428 0.224
322988.731 3075908.272 0.204
322988.580 3075908.132 0.155
322988.440 3075907.992 0.169
322988.334 3075907.849 0.153
322988.256 3075907.692 0.121
322988.176 3075907.550 0.132
322988.058 3075907.416 0.140
322987.894 3075907.263 0.111
322987.733 3075907.131 0.087
322987.591 3075906.989 0.114
322987.484 3075906.831 0.102
322987.426 3075906.680 0.079
322987.311 3075906.505 0.100
322987.143 3075906.360 0.089
322987.001 3075906.212 0.036
322986.844 3075906.070 0.067
322986.723 3075905.911 0.064
322986.631 3075905.747 0.024
322986.529 3075905.588 0.047
322986.379 3075905.442 0.060
322986.186 3075905.289 0.029
322986.017 3075905.184 0.022
322985.857 3075905.039 0.047
322985.734 3075904.886 0.020
322985.687 3075904.768 0.015
322985.598 3075904.655 0.029
322985.470 3075904.573 0.034
322985.321 3075904.512 0.024
322985.166 3075904.449 -0.012
322985.027 3075904.383 0.009
322984.925 3075904.279 0.012
322984.850 3075904.149 -0.004
322984.847 3075904.034 0.001
322984.757 3075903.882 0.011
322984.634 3075903.715 -0.018
322984.506 3075903.561 -0.033
322984.382 3075903.390 -0.025
322984.277 3075903.214 -0.037
322984.216 3075903.046 -0.057
322984.140 3075902.885 -0.042
322984.007 3075902.744 -0.034
322983.834 3075902.580 -0.082
322983.660 3075902.458 -0.079
322983.501 3075902.301 -0.072
322983.377 3075902.124 -0.097
322983.315 3075901.980 -0.101
322983.190 3075901.820 -0.090
322983.021 3075901.692 -0.104
322982.833 3075901.561 -0.145
322982.668 3075901.424 -0.124
322982.550 3075901.283 -0.132
322982.451 3075901.123 -0.174
322982.343 3075900.957 -0.155
322982.180 3075900.814 -0.146
322982.025 3075900.652 -0.194
322981.830 3075900.506 -0.167
322981.673 3075900.342 -0.165
322981.582 3075900.165 -0.196
322981.517 3075899.998 -0.186
322981.345 3075899.850 -0.182
322981.142 3075899.702 -0.213
322980.946 3075899.602 -0.224
322980.767 3075899.463 -0.208
322980.645 3075899.319 -0.224
322980.613 3075899.165 -0.267
322980.531 3075899.037 -0.248
322980.363 3075898.928 -0.249
322980.170 3075898.802 -0.305
322980.038 3075898.675 -0.294
322979.929 3075898.498 -0.301
322979.891 3075898.350 -0.344
322979.730 3075898.149 -0.331
322979.555 3075898.004 -0.340
322979.353 3075897.959 -0.338
322979.201 3075897.847 -0.306
322979.110 3075897.708 -0.306
322979.072 3075897.549 -0.359
322978.942 3075897.382 -0.345
322978.742 3075897.262 -0.335
322978.555 3075897.175 -0.372
322978.416 3075897.089 -0.373
322978.328 3075896.983 -0.371
322978.266 3075896.816 -0.400
322978.285 3075896.713 -0.435
322978.117 3075896.565 -0.409
322977.914 3075896.488 -0.435
322977.764 3075896.465 -0.448
322977.652 3075896.400 -0.446
322977.606 3075896.344 -0.460
322977.584 3075896.303 -0.471
322977.577 3075896.284 -0.473
322977.576 3075896.274 -0.476
322977.577 3075896.267 -0.478
322977.581 3075896.263 -0.474
