323034.281 3075922.514 1.893
323034.284 3075922.490 1.898
323034.273 3075922.454 1.897
323034.209 3075922.426 1.887
323034.119 3075922.399 1.874
323034.015 3075922.359 1.877
323033.908 3075922.329 1.861
323033.828 3075922.280 1.874
323033.804 3075922.214 1.847
323033.834 3075922.129 1.761
323033.779 3075922.017 1.774
323033.723 3075921.925 1.776
323033.634 3075921.863 1.753
323033.536 3075921.812 1.763
323033.447 3075921.743 1.748
323033.399 3075921.654 1.746
323033.423 3075921.583 1.726
323033.387 3075921.479 1.721
323033.330 3075921.407 1.717
323033.228 3075921.395 1.690
323033.095 3075921.362 1.697
323032.984 3075921.303 1.701
323032.923 3075921.223 1.701
323032.923 3075921.124 1.675
323032.898 3075921.024 1.638
323032.830 3075920.939 1.654
323032.760 3075920.868 1.658
323032.668 3075920.835 1.612
323032.580 3075920.778 1.598
323032.467 3075920.708 1.631
323032.404 3075920.630 1.620
323032.369 3075920.554 1.567
323032.293 3075920.474 1.572
323032.223 3075920.401 1.576
323032.118 3075920.347 1.539
323032.006 3075920.287 1.536
323031.877 3075920.198 1.533
323031.779 3075920.106 1.557
323031.763 3075920.003 1.543
323031.737 3075919.916 1.533
323031.698 3075919.834 1.544
323031.631 3075919.748 1.543
323031.520 3075919.682 1.522
323031.387 3075919.615 1.498
323031.252 3075919.516 1.529
323031.159 3075919.425 1.524
323031.126 3075919.321 1.504
323031.035 3075919.207 1.507
323030.955 3075919.099 1.510
323030.825 3075919.032 1.461
323030.680 3075918.934 1.484
323030.516 3075918.828 1.476
323030.472 3075918.730 1.457
323030.441 3075918.650 1.474
323030.415 3075918.563 1.471
323030.346 3075918.469 1.478
323030.240 3075918.397 1.449
323030.128 3075918.332 1.440
323029.969 3075918.231 1.441
323029.883 3075918.124 1.454
323029.859 3075918.034 1.397
323029.773 3075917.914 1.425
323029.689 3075917.809 1.436
323029.565 3075917.719 1.406
323029.438 3075917.652 1.406
323029.296 3075917.551 1.425
323029.204 3075917.461 1.435
323029.131 3075917.344 1.431
323029.072 3075917.237 1.445
323028.993 3075917.131 1.466
323028.875 3075917.051 1.427
323028.767 3075916.995 1.415
323028.649 3075916.914 1.423
323028.579 3075916.815 1.400
323028.549 3075916.730 1.368
323028.462 3075916.626 1.382
323028.387 3075916.556 1.392
323028.284 3075916.489 1.387
323028.163 3075916.441 1.374
323028.041 3075916.362 1.378
323027.941 3075916.279 1.379
323027.871 3075916.189 1.377
323027.822 3075916.086 1.319
323027.724 3075915.961 1.354
323027.618 3075915.855 1.347
323027.475 3075915.761 1.311
323027.343 3075915.674 1.298
323027.188 3075915.556 1.328
323027.107 3075915.445 1.301
323027.068 3075915.347 1.251
323026.964 3075915.228 1.265
323026.864 3075915.134 1.276
323026.732 3075915.036 1.241
323026.612 3075914.933 1.265
323026.454 3075914.822 1.281
323026.362 3075914.691 1.259
323026.318 3075914.565 1.205
323026.189 3075914.395 1.238
323026.043 3075914.256 1.213
323025.885 3075914.139 1.188
323025.719 3075913.981 1.227
323025.577 3075913.871 1.210
323025.490 3075913.743 1.157
323025.381 3075913.616 1.163
323025.220 3075913.475 1.164
323025.050 3075913.363 1.116
323024.889 3075913.233 1.174
323024.736 3075913.121 1.157
323024.650 3075912.993 1.103
323024.530 3075912.888 1.111
323024.399 3075912.747 1.112
323024.242 3075912.651 1.065
323024.114 3075912.536 1.090
323023.942 3075912.401 1.080
323023.856 3075912.263 1.032
323023.765 3075912.153 1.037
323023.647 3075912.008 1.044
323023.503 3075911.917 1.002
323023.392 3075911.816 1.025
323023.228 3075911.695 1.027
323023.132 3075911.563 1.002
323023.053 3075911.450 0.983
323022.906 3075911.278 1.004
323022.778 3075911.150 0.998
323022.628 3075911.050 0.955
323022.484 3075910.915 0.986
323022.358 3075910.808 0.980
323022.295 3075910.689 0.921
323022.202 3075910.579 0.936
323022.091 3075910.471 0.941
323021.945 3075910.380 0.920
323021.825 3075910.287 0.942
323021.687 3075910.204 0.949
323021.578 3075910.105 0.948
323021.525 3075910.000 0.913
323021.470 3075909.905 0.916
323021.345 3075909.797 0.921
323021.183 3075909.707 0.894
323021.032 3075909.615 0.906
323020.868 3075909.517 0.914
323020.766 3075909.410 0.900
323020.733 3075909.308 0.863
323020.647 3075909.184 0.884
323020.558 3075909.075 0.904
323020.417 3075908.986 0.881
323020.283 3075908.935 0.873
323020.136 3075908.828 0.882
323020.036 3075908.715 0.879
323019.992 3075908.596 0.847
323019.966 3075908.496 0.851
323019.858 3075908.380 0.855
323019.708 3075908.278 0.834
323019.551 3075908.184 0.835
323019.382 3075908.068 0.846
323019.256 3075907.963 0.839
323019.193 3075907.832 0.798
323019.109 3075907.724 0.808
323019.000 3075907.595 0.817
323018.858 3075907.491 0.782
323018.720 3075907.382 0.806
323018.547 3075907.248 0.824
323018.420 3075907.110 0.796
323018.339 3075906.990 0.783
323018.218 3075906.830 0.801
323018.080 3075906.704 0.787
323017.915 3075906.617 0.777
323017.739 3075906.488 0.810
323017.607 3075906.362 0.801
323017.554 3075906.224 0.768
323017.454 3075906.074 0.793
323017.349 3075905.931 0.797
323017.202 3075905.832 0.751
323017.073 3075905.699 0.783
323016.969 3075905.578 0.779
323016.934 3075905.443 0.752
323016.894 3075905.309 0.747
323016.825 3075905.162 0.758
323016.723 3075905.027 0.731
323016.615 3075904.930 0.717
323016.511 3075904.792 0.736
323016.446 3075904.650 0.720
323016.425 3075904.510 0.686
323016.371 3075904.350 0.694
323016.319 3075904.188 0.715
323016.243 3075904.047 0.682
323016.158 3075903.878 0.705
323016.063 3075903.717 0.706
323016.019 3075903.581 0.664
323015.992 3075903.436 0.646
323015.931 3075903.255 0.646
323015.826 3075903.094 0.604
323015.726 3075902.938 0.643
323015.622 3075902.806 0.639
323015.582 3075902.681 0.590
323015.525 3075902.558 0.595
323015.438 3075902.423 0.610
323015.317 3075902.310 0.605
323015.211 3075902.244 0.631
323015.103 3075902.156 0.651
323015.008 3075902.049 0.660
323014.962 3075901.917 0.628
323014.892 3075901.793 0.656
323014.832 3075901.649 0.673
323014.725 3075901.506 0.665
323014.595 3075901.372 0.643
323014.467 3075901.226 0.703
323014.338 3075901.131 0.711
323014.244 3075900.988 0.689
323014.205 3075900.859 0.706
323014.133 3075900.685 0.723
323014.026 3075900.531 0.724
323013.882 3075900.424 0.697
323013.744 3075900.297 0.718
323013.630 3075900.196 0.722
323013.557 3075900.063 0.686
323013.474 3075899.950 0.692
323013.374 3075899.817 0.697
323013.249 3075899.700 0.669
323013.132 3075899.588 0.628
323012.966 3075899.442 0.637
323012.855 3075899.292 0.573
323012.778 3075899.181 0.546
323012.641 3075899.026 0.544
323012.484 3075898.924 0.483
323012.347 3075898.797 0.497
323012.191 3075898.667 0.491
323012.087 3075898.526 0.437
323011.970 3075898.415 0.442
323011.823 3075898.283 0.435
323011.668 3075898.181 0.380
323011.502 3075898.045 0.435
323011.371 3075897.913 0.408
323011.304 3075897.789 0.363
323011.195 3075897.648 0.372
323011.073 3075897.524 0.343
323010.937 3075897.406 0.330
323010.766 3075897.255 0.350
323010.663 3075897.123 0.323
323010.589 3075897.017 0.291
323010.498 3075896.886 0.309
323010.380 3075896.776 0.281
323010.283 3075896.664 0.258
323010.159 3075896.537 0.296
323010.069 3075896.418 0.290
323009.995 3075896.293 0.269
323009.915 3075896.169 0.275
323009.813 3075896.048 0.291
323009.687 3075895.944 0.254
323009.563 3075895.829 0.258
323009.402 3075895.696 0.272
323009.305 3075895.555 0.241
323009.234 3075895.454 0.223
323009.126 3075895.315 0.215
323008.985 3075895.198 0.176
323008.850 3075895.077 0.196
323008.658 3075894.941 0.211
323008.522 3075894.795 0.190
323008.439 3075894.669 0.186
323008.327 3075894.516 0.185
323008.190 3075894.390 0.154
323008.055 3075894.289 0.159
323007.878 3075894.152 0.161
323007.757 3075894.007 0.125
323007.682 3075893.908 0.104
323007.584 3075893.774 0.115
323007.446 3075893.659 0.103
323007.309 3075893.541 0.122
323007.151 3075893.423 0.140
323007.038 3075893.297 0.122
323006.980 3075893.191 0.096
323006.869 3075893.058 0.117
323006.738 3075892.939 0.100
323006.619 3075892.845 0.071
323006.476 3075892.723 0.103
323006.348 3075892.630 0.102
323006.246 3075892.506 0.069
323006.164 3075892.402 0.058
323006.046 3075892.272 0.070
323005.907 3075892.163 0.037
323005.771 3075892.052 0.045
323005.575 3075891.925 0.063
323005.429 3075891.789 0.045
323005.349 3075891.662 0.018
323005.224 3075891.506 0.034
323005.086 3075891.378 0.016
323004.956 3075891.279 -0.004
323004.784 3075891.158 0.029
323004.652 3075891.038 0.006
323004.584 3075890.917 -0.016
323004.486 3075890.791 -0.006
323004.360 3075890.681 -0.013
323004.213 3075890.587 -0.035
323004.061 3075890.480 -0.002
323003.923 3075890.384 0.004
323003.826 3075890.253 -0.027
323003.738 3075890.130 -0.025
323003.615 3075890.004 -0.008
323003.474 3075889.898 -0.035
323003.350 3075889.808 -0.036
323003.208 3075889.697 -0.019
323003.102 3075889.582 -0.033
323003.044 3075889.455 -0.069
323002.979 3075889.328 -0.062
323002.877 3075889.203 -0.057
323002.756 3075889.084 -0.083
323002.621 3075888.959 -0.056
323002.478 3075888.828 -0.049
323002.413 3075888.695 -0.068
323002.395 3075888.580 -0.089
323002.343 3075888.434 -0.076
323002.254 3075888.296 -0.078
323002.145 3075888.195 -0.094
323002.023 3075888.075 -0.072
323001.919 3075887.952 -0.087
323001.875 3075887.833 -0.128
323001.808 3075887.708 -0.117
323001.700 3075887.569 -0.112
323001.557 3075887.447 -0.141
323001.435 3075887.332 -0.103
323001.293 3075887.226 -0.102
323001.189 3075887.094 -0.135
323001.138 3075886.990 -0.142
323000.994 3075886.842 -0.135
323000.841 3075886.732 -0.158
323000.694 3075886.658 -0.153
323000.518 3075886.552 -0.138
323000.404 3075886.434 -0.143
323000.354 3075886.322 -0.166
323000.267 3075886.206 -0.173
323000.160 3075886.089 -0.165
323000.023 3075885.967 -0.206
322999.883 3075885.835 -0.189
322999.720 3075885.692 -0.182
322999.629 3075885.541 -0.221
322999.594 3075885.422 -0.222
322999.506 3075885.268 -0.207
322999.399 3075885.136 -0.222
322999.270 3075885.010 -0.259
322999.154 3075884.847 -0.228
322999.069 3075884.720 -0.244
322999.053 3075884.640 -0.281
322999.007 3075884.524 -0.277
322998.901 3075884.417 -0.285
322998.762 3075884.343 -0.268
322998.624 3075884.270 -0.249
322998.546 3075884.164 -0.262
322998.552 3075884.068 -0.276
322998.448 3075883.953 -0.265
322998.309 3075883.862 -0.279
322998.152 3075883.808 -0.305
322997.997 3075883.708 -0.284
322997.889 3075883.613 -0.286
322997.861 3075883.484 -0.321
322997.824 3075883.364 -0.313
322997.729 3075883.248 -0.309
322997.609 3075883.150 -0.317
322997.524 3075883.062 -0.344
322997.397 3075882.968 -0.332
322997.275 3075882.861 -0.347
322997.175 3075882.723 -0.357
322997.088 3075882.559 -0.345
322997.000 3075882.451 -0.345
322996.887 3075882.452 -0.378
322996.769 3075882.375 -0.377
322996.708 3075882.288 -0.388
322996.757 3075882.199 -0.398
322996.733 3075882.111 -0.384
322996.684 3075882.056 -0.384
322996.622 3075882.087 -0.396
322996.585 3075882.108 -0.409
322996.599 3075882.112 -0.412
322996.660 3075882.116 -0.415
322996.668 3075882.093 -0.409
322996.651 3075882.083 -0.405
322996.630 3075882.079 -0.405
322996.615 3075882.070 -0.411
322996.619 3075882.062 -0.416
322996.625 3075882.057 -0.416
322996.624 3075882.055 -0.417
322996.625 3075882.060 -0.419
322996.613 3075882.061 -0.418
322996.606 3075882.041 -0.415
322996.612 3075882.007 -0.416
322996.615 3075881.977 -0.412
322996.607 3075881.947 -0.402
322996.613 3075881.931 -0.403
322996.621 3075881.932 -0.409
322996.619 3075881.940 -0.410
