322786.402 3076162.695 1.838
322786.399 3076162.658 1.835
322786.365 3076162.610 1.830
322786.291 3076162.574 1.823
322786.197 3076162.543 1.814
322786.125 3076162.484 1.792
322786.066 3076162.423 1.785
322786.043 3076162.312 1.744
322785.985 3076162.233 1.736
322785.897 3076162.122 1.747
322785.775 3076162.024 1.717
322785.669 3076161.883 1.762
322785.551 3076161.752 1.752
322785.517 3076161.646 1.689
322785.462 3076161.523 1.705
322785.371 3076161.389 1.686
322785.260 3076161.282 1.670
322785.153 3076161.163 1.698
322785.058 3076161.078 1.698
322785.014 3076160.973 1.663
322784.967 3076160.861 1.671
322784.884 3076160.710 1.700
322784.763 3076160.581 1.679
322784.659 3076160.506 1.696
322784.574 3076160.397 1.724
322784.495 3076160.281 1.724
322784.489 3076160.198 1.735
322784.431 3076160.098 1.717
322784.347 3076159.983 1.699
322784.223 3076159.904 1.682
322784.117 3076159.814 1.691
322784.026 3076159.714 1.700
322783.993 3076159.617 1.666
322783.941 3076159.512 1.680
322783.883 3076159.391 1.695
322783.797 3076159.269 1.691
322783.692 3076159.169 1.674
322783.583 3076159.058 1.698
322783.470 3076158.941 1.707
322783.409 3076158.808 1.670
322783.344 3076158.697 1.640
322783.267 3076158.536 1.662
322783.158 3076158.413 1.628
322783.043 3076158.312 1.578
322782.921 3076158.169 1.624
322782.839 3076158.009 1.622
322782.786 3076157.861 1.601
322782.686 3076157.715 1.624
322782.577 3076157.589 1.608
322782.449 3076157.493 1.534
322782.320 3076157.326 1.598
322782.200 3076157.185 1.580
322782.167 3076157.050 1.534
322782.106 3076156.912 1.551
322782.063 3076156.752 1.571
322781.967 3076156.616 1.541
322781.891 3076156.487 1.555
322781.770 3076156.315 1.592
322781.709 3076156.156 1.565
322781.660 3076156.010 1.567
322781.588 3076155.828 1.592
322781.449 3076155.676 1.534
322781.300 3076155.539 1.568
322781.192 3076155.399 1.552
322781.171 3076155.276 1.489
322781.118 3076155.129 1.509
322781.047 3076154.979 1.533
322780.916 3076154.858 1.486
322780.801 3076154.728 1.503
322780.664 3076154.580 1.533
322780.574 3076154.439 1.496
322780.553 3076154.341 1.482
322780.487 3076154.192 1.504
322780.370 3076154.066 1.469
322780.228 3076153.942 1.428
322780.090 3076153.777 1.463
322779.960 3076153.639 1.471
322779.894 3076153.503 1.412
322779.816 3076153.357 1.450
322779.715 3076153.216 1.438
322779.558 3076153.105 1.410
322779.412 3076152.998 1.438
322779.271 3076152.891 1.451
322779.178 3076152.796 1.430
322779.134 3076152.714 1.394
322779.040 3076152.617 1.409
322778.913 3076152.564 1.404
322778.784 3076152.557 1.382
322778.626 3076152.522 1.412
322778.486 3076152.467 1.438
322778.391 3076152.388 1.443
322778.383 3076152.316 1.434
322778.346 3076152.237 1.440
322778.296 3076152.179 1.452
322778.189 3076152.143 1.443
322778.051 3076152.155 1.413
322777.883 3076152.136 1.444
322777.732 3076152.105 1.447
322777.664 3076152.049 1.450
322777.659 3076151.990 1.440
322777.585 3076151.936 1.443
322777.460 3076151.914 1.442
322777.317 3076151.954 1.418
322777.148 3076151.950 1.442
322777.082 3076151.938 1.449
322777.094 3076151.916 1.435
322777.013 3076151.901 1.438
322776.920 3076151.913 1.430
322776.824 3076151.938 1.440
322776.739 3076151.961 1.447
322776.669 3076151.953 1.445
322776.634 3076151.899 1.431
322776.663 3076151.829 1.415
322776.636 3076151.710 1.433
322776.576 3076151.606 1.457
322776.454 3076151.545 1.419
322776.311 3076151.496 1.425
322776.098 3076151.376 1.434
322775.945 3076151.241 1.416
322775.945 3076151.156 1.392
322775.841 3076151.043 1.396
322775.665 3076150.982 1.351
322775.493 3076150.910 1.409
322775.303 3076150.827 1.408
322775.183 3076150.709 1.372
322775.143 3076150.595 1.331
322775.009 3076150.466 1.358
322774.872 3076150.368 1.316
322774.735 3076150.268 1.284
322774.566 3076150.112 1.332
322774.436 3076149.973 1.317
322774.345 3076149.844 1.265
322774.211 3076149.682 1.304
322774.062 3076149.556 1.288
322773.902 3076149.487 1.274
322773.718 3076149.342 1.299
322773.593 3076149.209 1.279
322773.519 3076149.085 1.235
322773.393 3076148.927 1.265
322773.255 3076148.788 1.245
322773.097 3076148.667 1.199
322772.943 3076148.512 1.231
322772.809 3076148.376 1.207
322772.696 3076148.232 1.151
322772.587 3076148.058 1.184
322772.472 3076147.926 1.156
322772.348 3076147.803 1.130
322772.160 3076147.635 1.175
322772.031 3076147.492 1.148
322771.920 3076147.353 1.113
322771.783 3076147.181 1.142
322771.644 3076147.038 1.119
322771.493 3076146.960 1.094
322771.320 3076146.822 1.116
322771.193 3076146.684 1.088
322771.125 3076146.556 1.052
322771.014 3076146.394 1.081
322770.890 3076146.259 1.061
322770.744 3076146.149 1.017
322770.575 3076145.987 1.069
322770.460 3076145.848 1.041
322770.362 3076145.717 0.982
322770.245 3076145.575 1.004
322770.102 3076145.455 0.997
322769.946 3076145.386 0.964
322769.772 3076145.273 1.008
322769.658 3076145.164 0.992
322769.583 3076145.008 0.948
322769.514 3076144.875 0.951
322769.397 3076144.735 0.970
322769.263 3076144.624 0.919
322769.126 3076144.494 0.944
322768.985 3076144.360 0.946
322768.922 3076144.207 0.903
322768.880 3076144.060 0.892
322768.777 3076143.885 0.918
322768.667 3076143.749 0.886
322768.560 3076143.642 0.884
322768.413 3076143.485 0.910
322768.320 3076143.334 0.880
322768.279 3076143.212 0.858
322768.180 3076143.053 0.880
322768.044 3076142.915 0.856
322767.920 3076142.819 0.838
322767.758 3076142.669 0.867
322767.652 3076142.531 0.863
322767.590 3076142.398 0.819
322767.495 3076142.263 0.821
322767.388 3076142.117 0.837
322767.245 3076141.984 0.797
322767.132 3076141.831 0.837
322766.998 3076141.687 0.831
322766.907 3076141.530 0.775
322766.818 3076141.389 0.795
322766.733 3076141.247 0.785
322766.606 3076141.122 0.733
322766.491 3076140.978 0.753
322766.352 3076140.833 0.753
322766.279 3076140.680 0.715
322766.219 3076140.549 0.719
322766.136 3076140.390 0.723
322765.991 3076140.257 0.687
322765.868 3076140.136 0.676
322765.724 3076139.985 0.698
322765.618 3076139.820 0.664
322765.495 3076139.675 0.690
322765.391 3076139.506 0.686
322765.248 3076139.377 0.638
322765.105 3076139.265 0.631
322764.931 3076139.115 0.633
322764.814 3076138.948 0.572
322764.736 3076138.802 0.597
322764.568 3076138.618 0.612
322764.384 3076138.476 0.577
322764.258 3076138.343 0.622
322764.114 3076138.214 0.631
322763.996 3076138.053 0.609
322763.950 3076137.937 0.622
322763.864 3076137.787 0.629
322763.746 3076137.636 0.629
322763.597 3076137.507 0.606
322763.471 3076137.372 0.653
322763.354 3076137.264 0.663
322763.238 3076137.115 0.640
322763.186 3076136.999 0.663
322763.090 3076136.842 0.677
322762.978 3076136.700 0.679
322762.835 3076136.564 0.659
322762.706 3076136.442 0.704
322762.586 3076136.321 0.714
322762.498 3076136.170 0.676
322762.432 3076136.037 0.692
322762.345 3076135.875 0.707
322762.228 3076135.738 0.688
322762.099 3076135.629 0.647
322761.957 3076135.503 0.661
322761.822 3076135.353 0.639
322761.736 3076135.198 0.557
322761.648 3076135.061 0.595
322761.482 3076134.914 0.535
322761.345 3076134.778 0.521
322761.136 3076134.635 0.554
322760.993 3076134.451 0.493
322760.878 3076134.298 0.503
322760.754 3076134.166 0.496
322760.574 3076134.074 0.436
322760.410 3076133.942 0.459
322760.260 3076133.813 0.437
322760.161 3076133.665 0.362
322760.052 3076133.544 0.398
322759.910 3076133.420 0.371
322759.740 3076133.317 0.321
322759.571 3076133.199 0.363
322759.415 3076133.066 0.334
322759.322 3076132.926 0.278
322759.207 3076132.770 0.323
322759.082 3076132.645 0.313
322758.914 3076132.544 0.263
322758.755 3076132.413 0.306
322758.607 3076132.301 0.286
322758.496 3076132.157 0.227
322758.381 3076132.019 0.260
322758.246 3076131.886 0.262
322758.078 3076131.783 0.205
322757.924 3076131.651 0.245
322757.750 3076131.526 0.235
322757.638 3076131.379 0.171
322757.537 3076131.254 0.184
322757.402 3076131.096 0.193
322757.249 3076130.976 0.146
322757.098 3076130.856 0.180
322756.941 3076130.745 0.176
322756.816 3076130.618 0.124
322756.734 3076130.506 0.096
322756.586 3076130.338 0.132
322756.451 3076130.206 0.087
322756.322 3076130.086 0.090
322756.136 3076129.929 0.114
322756.003 3076129.775 0.078
322755.902 3076129.648 0.068
322755.776 3076129.490 0.080
322755.620 3076129.353 0.049
322755.500 3076129.231 0.050
322755.311 3076129.065 0.061
322755.186 3076128.905 0.019
322755.128 3076128.792 -0.001
322754.997 3076128.632 0.008
322754.852 3076128.509 -0.027
322754.719 3076128.383 -0.023
322754.528 3076128.238 -0.004
322754.386 3076128.092 -0.034
322754.280 3076127.975 -0.063
322754.137 3076127.811 -0.034
322753.984 3076127.694 -0.076
322753.840 3076127.582 -0.078
322753.647 3076127.429 -0.048
322753.515 3076127.293 -0.078
322753.418 3076127.179 -0.108
322753.298 3076127.028 -0.084
322753.161 3076126.905 -0.113
322753.014 3076126.788 -0.125
322752.841 3076126.629 -0.086
322752.700 3076126.507 -0.096
322752.611 3076126.386 -0.146
322752.504 3076126.254 -0.126
322752.389 3076126.131 -0.127
322752.233 3076126.017 -0.164
322752.103 3076125.901 -0.116
322751.959 3076125.799 -0.105
322751.835 3076125.666 -0.138
322751.769 3076125.574 -0.150
322751.650 3076125.439 -0.135
322751.519 3076125.332 -0.148
322751.383 3076125.232 -0.167
322751.240 3076125.113 -0.126
322751.127 3076125.024 -0.124
322751.033 3076124.909 -0.154
322750.967 3076124.823 -0.155
322750.878 3076124.704 -0.140
322750.751 3076124.600 -0.159
322750.620 3076124.527 -0.173
322750.465 3076124.432 -0.140
322750.348 3076124.353 -0.134
322750.271 3076124.237 -0.162
322750.197 3076124.125 -0.159
322750.095 3076124.015 -0.145
322749.973 3076123.917 -0.162
322749.830 3076123.854 -0.197
322749.675 3076123.766 -0.168
322749.548 3076123.691 -0.172
322749.428 3076123.577 -0.187
322749.404 3076123.482 -0.220
322749.261 3076123.352 -0.193
322749.119 3076123.250 -0.193
322748.950 3076123.155 -0.233
322748.788 3076123.054 -0.199
322748.647 3076122.973 -0.204
322748.555 3076122.840 -0.236
322748.508 3076122.746 -0.258
322748.385 3076122.609 -0.241
322748.250 3076122.516 -0.269
322748.118 3076122.423 -0.288
322747.970 3076122.298 -0.267
322747.840 3076122.176 -0.269
322747.786 3076122.048 -0.307
322747.716 3076121.938 -0.305
322747.626 3076121.831 -0.299
322747.492 3076121.746 -0.329
322747.385 3076121.634 -0.315
322747.238 3076121.522 -0.307
322747.145 3076121.395 -0.324
322747.091 3076121.284 -0.346
322747.032 3076121.161 -0.336
322746.948 3076121.076 -0.339
322746.830 3076121.012 -0.370
322746.733 3076120.951 -0.369
322746.636 3076120.882 -0.355
322746.573 3076120.795 -0.351
322746.517 3076120.704 -0.375
322746.479 3076120.606 -0.381
322746.428 3076120.505 -0.380
322746.346 3076120.408 -0.375
322746.251 3076120.326 -0.405
322746.168 3076120.251 -0.414
322746.079 3076120.148 -0.387
322746.037 3076120.041 -0.389
322746.043 3076119.967 -0.388
322746.035 3076119.895 -0.389
322745.977 3076119.852 -0.393
322745.891 3076119.858 -0.423
322745.767 3076119.839 -0.410
322745.674 3076119.820 -0.413
322745.645 3076119.780 -0.411
322745.682 3076119.722 -0.422
322745.665 3076119.651 -0.424
322745.647 3076119.589 -0.427
322745.611 3076119.542 -0.420
322745.535 3076119.509 -0.427
322745.431 3076119.500 -0.438
322745.297 3076119.473 -0.442
322745.253 3076119.427 -0.442
322745.374 3076119.245 -0.477
322745.358 3076119.204 -0.479
322745.296 3076119.068 -0.455
322745.376 3076118.969 -0.489
322745.368 3076118.879 -0.449
322745.317 3076118.863 -0.446
322745.281 3076118.857 -0.451
322745.270 3076118.829 -0.450
322745.290 3076118.769 -0.463
322745.324 3076118.651 -0.499
322745.301 3076118.552 -0.487
322745.232 3076118.437 -0.506
322745.228 3076118.183 -0.498
322745.834 3076117.954 -0.478
322745.909 3076117.985 -0.464
322745.885 3076117.979 -0.459
322745.856 3076117.974 -0.467
322745.855 3076117.976 -0.465
322745.852 3076117.977 -0.455
322745.852 3076117.971 -0.455
322745.852 3076117.966 -0.459
322745.855 3076117.965 -0.465
322745.857 3076117.960 -0.466
322745.862 3076117.957 -0.474
322745.865 3076117.954 -0.471
322745.862 3076117.949 -0.472
322745.859 3076117.943 -0.468
322745.854 3076117.939 -0.466
