323019.417 3075873.066 -0.116
323019.274 3075873.233 -0.100
323019.113 3075873.384 -0.152
323018.964 3075873.534 -0.108
323018.793 3075873.654 -0.111
323018.627 3075873.745 -0.152
323018.458 3075873.839 -0.116
323018.290 3075873.993 -0.107
323018.097 3075874.151 -0.158
323017.944 3075874.307 -0.124
323017.772 3075874.402 -0.118
323017.603 3075874.479 -0.149
323017.398 3075874.587 -0.122
323017.216 3075874.747 -0.107
323017.022 3075874.890 -0.154
323016.844 3075875.018 -0.127
323016.667 3075875.130 -0.123
323016.495 3075875.225 -0.154
323016.325 3075875.337 -0.117
323016.172 3075875.497 -0.102
323016.003 3075875.697 -0.131
323015.888 3075875.881 -0.122
323015.744 3075876.036 -0.093
323015.556 3075876.189 -0.113
323015.427 3075876.267 -0.107
323015.270 3075876.397 -0.082
323015.143 3075876.589 -0.087
323015.065 3075876.760 -0.143
323014.933 3075876.929 -0.094
323014.751 3075877.051 -0.098
323014.584 3075877.210 -0.144
323014.411 3075877.382 -0.135
323014.210 3075877.577 -0.163
323014.095 3075877.722 -0.143
323013.943 3075877.869 -0.117
323013.749 3075878.026 -0.152
323013.603 3075878.126 -0.135
323013.445 3075878.288 -0.110
323013.281 3075878.478 -0.140
323013.136 3075878.630 -0.139
323012.982 3075878.776 -0.114
323012.777 3075878.911 -0.141
323012.628 3075879.020 -0.120
323012.457 3075879.171 -0.094
323012.266 3075879.349 -0.121
323012.143 3075879.490 -0.106
323011.980 3075879.630 -0.083
323011.775 3075879.780 -0.116
323011.639 3075879.874 -0.116
323011.470 3075880.017 -0.087
323011.304 3075880.193 -0.103
323011.201 3075880.322 -0.130
323011.041 3075880.484 -0.092
323010.854 3075880.602 -0.112
323010.721 3075880.667 -0.131
323010.548 3075880.786 -0.088
323010.400 3075880.951 -0.084
323010.254 3075881.089 -0.128
323010.117 3075881.249 -0.085
323009.951 3075881.372 -0.094
323009.782 3075881.484 -0.131
323009.619 3075881.593 -0.088
323009.464 3075881.747 -0.083
323009.306 3075881.913 -0.119
323009.187 3075882.072 -0.095
323009.035 3075882.200 -0.076
323008.856 3075882.320 -0.107
323008.694 3075882.414 -0.081
323008.524 3075882.566 -0.066
323008.357 3075882.733 -0.096
323008.237 3075882.882 -0.086
323008.086 3075883.008 -0.062
323007.884 3075883.097 -0.089
323007.741 3075883.110 -0.110
323007.578 3075883.132 -0.093
323007.426 3075883.168 -0.097
323007.280 3075883.233 -0.119
323007.087 3075883.274 -0.080
323006.898 3075883.227 -0.111
323006.716 3075883.168 -0.116
323006.428 3075883.168 -0.090
323006.099 3075883.222 -0.133
323005.883 3075883.291 -0.121
323005.649 3075883.340 -0.094
323005.411 3075883.382 -0.134
323005.243 3075883.399 -0.114
323005.075 3075883.468 -0.095
323004.965 3075883.596 -0.092
323004.815 3075883.776 -0.136
323004.691 3075883.937 -0.127
323004.535 3075884.082 -0.116
323004.359 3075884.173 -0.134
323004.218 3075884.274 -0.149
323004.052 3075884.406 -0.123
323003.910 3075884.582 -0.144
323003.777 3075884.718 -0.184
323003.615 3075884.864 -0.150
323003.417 3075884.985 -0.164
323003.282 3075885.073 -0.171
323003.093 3075885.213 -0.134
323002.942 3075885.402 -0.149
323002.800 3075885.541 -0.185
323002.653 3075885.697 -0.144
323002.501 3075885.792 -0.160
323002.353 3075885.879 -0.190
323002.200 3075885.985 -0.149
323002.057 3075886.131 -0.146
323001.887 3075886.281 -0.188
323001.747 3075886.411 -0.170
323001.597 3075886.537 -0.159
323001.412 3075886.655 -0.177
323001.294 3075886.720 -0.162
323001.138 3075886.850 -0.128
323001.006 3075887.025 -0.137
323000.891 3075887.150 -0.169
323000.747 3075887.299 -0.129
323000.577 3075887.422 -0.144
323000.447 3075887.517 -0.174
323000.268 3075887.646 -0.134
323000.113 3075887.825 -0.147
322999.975 3075887.952 -0.183
322999.818 3075888.117 -0.150
322999.655 3075888.231 -0.155
322999.491 3075888.338 -0.176
322999.332 3075888.435 -0.136
322999.178 3075888.574 -0.120
322999.009 3075888.722 -0.163
322998.878 3075888.862 -0.145
322998.719 3075888.991 -0.131
322998.536 3075889.129 -0.168
322998.381 3075889.225 -0.134
322998.212 3075889.382 -0.112
322998.026 3075889.559 -0.156
322997.880 3075889.712 -0.141
322997.714 3075889.836 -0.123
322997.509 3075889.952 -0.161
322997.348 3075890.036 -0.138
322997.167 3075890.221 -0.121
322996.977 3075890.398 -0.169
322996.823 3075890.562 -0.135
322996.656 3075890.696 -0.128
322996.495 3075890.818 -0.166
322996.338 3075890.953 -0.125
322996.192 3075891.109 -0.114
322996.012 3075891.269 -0.163
322995.869 3075891.438 -0.126
322995.704 3075891.564 -0.113
322995.523 3075891.691 -0.154
322995.358 3075891.801 -0.113
322995.198 3075891.984 -0.094
322995.033 3075892.163 -0.142
322994.904 3075892.323 -0.111
322994.730 3075892.455 -0.097
322994.551 3075892.580 -0.144
322994.367 3075892.712 -0.097
322994.171 3075892.879 -0.083
322993.991 3075893.028 -0.147
322993.832 3075893.180 -0.104
322993.667 3075893.303 -0.102
322993.506 3075893.418 -0.142
322993.338 3075893.535 -0.097
322993.181 3075893.718 -0.083
322993.020 3075893.904 -0.142
322992.884 3075894.097 -0.101
322992.714 3075894.256 -0.108
322992.516 3075894.403 -0.144
322992.361 3075894.510 -0.121
322992.212 3075894.677 -0.101
322992.074 3075894.870 -0.137
322991.972 3075895.027 -0.141
322991.843 3075895.180 -0.108
322991.695 3075895.320 -0.131
322991.588 3075895.399 -0.126
322991.428 3075895.534 -0.099
322991.276 3075895.695 -0.125
322991.139 3075895.831 -0.145
322990.988 3075895.988 -0.114
322990.839 3075896.103 -0.127
322990.697 3075896.185 -0.143
322990.539 3075896.275 -0.094
322990.391 3075896.399 -0.091
322990.235 3075896.529 -0.134
322990.100 3075896.665 -0.113
322989.945 3075896.781 -0.104
322989.775 3075896.880 -0.132
322989.644 3075896.952 -0.123
322989.478 3075897.078 -0.098
322989.298 3075897.236 -0.132
322989.161 3075897.377 -0.135
322989.001 3075897.519 -0.101
322988.812 3075897.648 -0.123
322988.671 3075897.716 -0.138
322988.498 3075897.854 -0.101
322988.364 3075898.033 -0.120
322988.235 3075898.189 -0.139
322988.105 3075898.340 -0.103
322987.952 3075898.452 -0.107
322987.799 3075898.538 -0.129
322987.655 3075898.632 -0.092
322987.519 3075898.780 -0.086
322987.356 3075898.927 -0.126
322987.215 3075899.065 -0.125
322987.053 3075899.177 -0.106
322986.871 3075899.276 -0.135
322986.736 3075899.332 -0.126
322986.560 3075899.464 -0.091
322986.394 3075899.636 -0.120
322986.254 3075899.789 -0.130
322986.095 3075899.926 -0.094
322985.934 3075900.044 -0.114
322985.802 3075900.129 -0.129
322985.647 3075900.246 -0.088
322985.533 3075900.403 -0.078
322985.427 3075900.596 -0.115
322985.346 3075900.759 -0.094
322985.230 3075900.907 -0.077
322985.080 3075901.038 -0.110
322984.963 3075901.104 -0.116
322984.818 3075901.237 -0.095
322984.702 3075901.372 -0.110
322984.597 3075901.510 -0.146
322984.488 3075901.659 -0.101
322984.352 3075901.768 -0.101
322984.179 3075901.850 -0.122
322984.044 3075901.885 -0.107
322983.882 3075901.989 -0.091
322983.742 3075902.132 -0.108
322983.643 3075902.266 -0.124
322983.522 3075902.398 -0.079
322983.383 3075902.482 -0.075
322983.257 3075902.505 -0.086
322983.122 3075902.539 -0.073
322983.039 3075902.575 -0.055
322983.035 3075902.557 -0.051
322983.084 3075902.536 -0.069
322983.189 3075902.584 -0.082
322983.071 3075902.839 -0.060
322982.983 3075903.135 -0.021
322982.930 3075903.321 -0.012
322982.894 3075903.440 -0.013
322982.859 3075903.490 -0.013
322982.819 3075903.485 -0.009
322982.767 3075903.449 -0.017
322982.694 3075903.427 -0.026
322982.613 3075903.407 -0.038
322982.485 3075903.378 -0.057
322982.380 3075903.376 -0.049
322982.274 3075903.457 -0.055
322982.148 3075903.572 -0.091
322982.054 3075903.701 -0.090
322981.933 3075903.828 -0.080
322981.769 3075903.922 -0.107
322981.657 3075903.966 -0.114
322981.510 3075904.067 -0.073
322981.393 3075904.180 -0.077
322981.242 3075904.312 -0.116
322981.126 3075904.443 -0.086
322980.979 3075904.570 -0.070
322980.809 3075904.681 -0.088
322980.684 3075904.744 -0.102
322980.515 3075904.883 -0.070
322980.381 3075905.057 -0.084
322980.255 3075905.196 -0.117
322980.114 3075905.365 -0.076
322979.966 3075905.477 -0.095
322979.824 3075905.601 -0.117
322979.684 3075905.722 -0.075
322979.551 3075905.875 -0.075
322979.405 3075906.042 -0.120
322979.283 3075906.214 -0.105
322979.132 3075906.334 -0.100
322978.951 3075906.441 -0.125
322978.805 3075906.542 -0.107
322978.637 3075906.689 -0.091
322978.458 3075906.861 -0.119
322978.326 3075906.994 -0.125
322978.181 3075907.149 -0.080
322978.010 3075907.263 -0.094
322977.888 3075907.354 -0.105
322977.713 3075907.501 -0.067
322977.583 3075907.701 -0.082
322977.436 3075907.876 -0.124
322977.303 3075908.060 -0.087
322977.162 3075908.194 -0.084
322977.030 3075908.312 -0.111
322976.884 3075908.449 -0.072
322976.754 3075908.620 -0.068
322976.601 3075908.791 -0.113
322976.484 3075908.959 -0.097
322976.339 3075909.100 -0.082
322976.163 3075909.230 -0.120
322976.030 3075909.336 -0.093
322975.882 3075909.508 -0.071
322975.718 3075909.704 -0.103
322975.598 3075909.854 -0.097
322975.460 3075910.007 -0.074
322975.289 3075910.167 -0.099
322975.171 3075910.270 -0.091
322975.014 3075910.429 -0.063
322974.863 3075910.604 -0.087
322974.745 3075910.730 -0.112
322974.594 3075910.883 -0.069
322974.424 3075910.987 -0.086
322974.278 3075911.067 -0.115
322974.098 3075911.177 -0.072
322973.958 3075911.336 -0.071
322973.789 3075911.474 -0.114
322973.640 3075911.610 -0.084
322973.495 3075911.727 -0.080
322973.318 3075911.842 -0.110
322973.181 3075911.923 -0.083
322973.026 3075912.079 -0.061
322972.858 3075912.268 -0.103
322972.730 3075912.409 -0.112
322972.579 3075912.556 -0.082
322972.396 3075912.700 -0.095
322972.275 3075912.780 -0.101
322972.111 3075912.933 -0.068
322971.949 3075913.117 -0.087
322971.809 3075913.264 -0.121
322971.650 3075913.420 -0.068
322971.472 3075913.554 -0.080
322971.339 3075913.658 -0.112
322971.165 3075913.805 -0.055
322971.019 3075913.969 -0.058
322970.861 3075914.114 -0.120
322970.692 3075914.265 -0.077
322970.508 3075914.379 -0.082
322970.356 3075914.464 -0.117
322970.185 3075914.589 -0.078
322970.038 3075914.737 -0.079
322969.853 3075914.871 -0.117
322969.700 3075915.020 -0.068
322969.535 3075915.134 -0.069
322969.345 3075915.250 -0.111
322969.196 3075915.351 -0.081
322969.036 3075915.495 -0.066
322968.864 3075915.642 -0.098
322968.730 3075915.746 -0.099
322968.571 3075915.858 -0.069
322968.377 3075915.931 -0.093
322968.237 3075915.992 -0.106
322968.046 3075916.090 -0.062
322967.862 3075916.241 -0.076
322967.706 3075916.356 -0.108
322967.530 3075916.483 -0.068
322967.349 3075916.571 -0.091
322967.195 3075916.650 -0.119
322967.020 3075916.741 -0.081
322966.860 3075916.876 -0.083
322966.683 3075917.011 -0.124
322966.530 3075917.136 -0.090
322966.362 3075917.245 -0.077
322966.180 3075917.351 -0.105
322966.041 3075917.433 -0.084
322965.892 3075917.605 -0.066
322965.739 3075917.812 -0.102
322965.635 3075917.979 -0.099
322965.508 3075918.144 -0.078
322965.349 3075918.297 -0.104
322965.224 3075918.397 -0.090
322965.086 3075918.565 -0.070
322964.964 3075918.742 -0.080
322964.836 3075918.893 -0.120
322964.696 3075919.066 -0.075
322964.526 3075919.202 -0.091
322964.412 3075919.296 -0.112
322964.256 3075919.446 -0.069
322964.132 3075919.615 -0.064
322963.988 3075919.773 -0.125
322963.846 3075919.916 -0.091
322963.685 3075920.010 -0.092
322963.543 3075920.084 -0.125
322963.375 3075920.191 -0.070
322963.205 3075920.366 -0.069
322963.051 3075920.495 -0.116
322962.893 3075920.654 -0.072
322962.724 3075920.791 -0.082
322962.572 3075920.917 -0.116
322962.423 3075921.032 -0.084
322962.287 3075921.182 -0.069
322962.132 3075921.366 -0.112
322962.021 3075921.520 -0.096
322961.879 3075921.670 -0.068
322961.698 3075921.814 -0.099
322961.571 3075921.902 -0.079
322961.413 3075922.066 -0.053
322961.260 3075922.242 -0.078
322961.124 3075922.403 -0.097
322960.969 3075922.565 -0.070
322960.779 3075922.706 -0.091
322960.649 3075922.796 -0.098
322960.486 3075922.944 -0.054
322960.355 3075923.124 -0.069
322960.235 3075923.268 -0.101
322960.081 3075923.436 -0.055
322959.897 3075923.561 -0.081
322959.755 3075923.656 -0.104
322959.577 3075923.793 -0.066
322959.439 3075923.978 -0.069
322959.276 3075924.135 -0.117
322959.131 3075924.293 -0.076
322958.986 3075924.419 -0.079
322958.835 3075924.538 -0.110
322958.694 3075924.640 -0.071
322958.556 3075924.790 -0.050
322958.409 3075924.966 -0.074
322958.299 3075925.113 -0.097
322958.169 3075925.279 -0.055
322957.984 3075925.418 -0.074
322957.871 3075925.496 -0.096
322957.703 3075925.634 -0.058
322957.576 3075925.812 -0.062
322957.433 3075925.959 -0.120
322957.294 3075926.123 -0.067
322957.138 3075926.246 -0.074
322956.980 3075926.376 -0.112
322956.818 3075926.485 -0.064
322956.685 3075926.674 -0.057
322956.543 3075926.861 -0.099
322956.433 3075927.026 -0.071
322956.293 3075927.183 -0.055
322956.135 3075927.321 -0.086
322956.011 3075927.421 -0.055
322955.867 3075927.571 -0.033
322955.719 3075927.762 -0.072
322955.612 3075927.909 -0.083
322955.479 3075928.064 -0.062
322955.312 3075928.218 -0.094
322955.212 3075928.316 -0.078
322955.066 3075928.472 -0.049
322954.939 3075928.670 -0.058
322954.826 3075928.842 -0.105
322954.697 3075929.019 -0.068
322954.540 3075929.160 -0.074
322954.412 3075929.262 -0.109
322954.271 3075929.398 -0.071
322954.146 3075929.552 -0.061
322954.010 3075929.727 -0.102
322953.899 3075929.890 -0.096
322953.754 3075930.050 -0.079
322953.599 3075930.168 -0.094
322953.478 3075930.266 -0.119
322953.310 3075930.427 -0.089
322953.170 3075930.617 -0.103
322953.056 3075930.772 -0.134
322952.919 3075930.946 -0.093
322952.746 3075931.093 -0.107
322952.618 3075931.194 -0.110
322952.446 3075931.370 -0.070
322952.276 3075931.590 -0.088
322952.152 3075931.746 -0.116
322952.006 3075931.923 -0.068
322951.835 3075932.082 -0.075
322951.711 3075932.146 -0.097
322951.555 3075932.290 -0.051
322951.437 3075932.474 -0.051
322951.293 3075932.640 -0.097
322951.177 3075932.812 -0.065
322951.036 3075932.953 -0.063
322950.866 3075933.091 -0.104
322950.729 3075933.165 -0.089
322950.573 3075933.304 -0.061
322950.450 3075933.486 -0.079
322950.330 3075933.628 -0.116
322950.191 3075933.790 -0.080
322949.990 3075933.958 -0.107
322949.840 3075934.049 -0.098
322949.675 3075934.210 -0.059
322949.485 3075934.419 -0.093
322949.356 3075934.589 -0.082
322949.200 3075934.732 -0.053
322949.010 3075934.866 -0.090
322948.833 3075934.931 -0.056
322948.662 3075935.056 -0.046
322948.473 3075935.184 -0.077
322948.335 3075935.332 -0.066
322948.167 3075935.431 -0.047
322947.978 3075935.453 -0.082
322947.818 3075935.424 -0.100
322947.594 3075935.464 -0.065
322947.367 3075935.574 -0.068
322947.217 3075935.655 -0.081
322947.018 3075935.764 -0.049
322946.807 3075935.868 -0.059
322946.622 3075935.960 -0.110
322946.424 3075936.072 -0.068
322946.276 3075936.258 -0.081
322946.157 3075936.445 -0.126
322946.033 3075936.605 -0.097
322945.870 3075936.747 -0.100
322945.745 3075936.839 -0.117
322945.603 3075936.963 -0.062
322945.465 3075937.087 -0.059
322945.298 3075937.220 -0.112
322945.147 3075937.372 -0.081
322944.982 3075937.488 -0.062
322944.804 3075937.582 -0.092
322944.643 3075937.641 -0.080
322944.454 3075937.806 -0.063
322944.277 3075938.025 -0.096
322944.160 3075938.170 -0.108
322944.025 3075938.316 -0.070
322943.857 3075938.461 -0.101
322943.719 3075938.532 -0.115
322943.546 3075938.658 -0.088
322943.423 3075938.792 -0.081
322943.284 3075938.908 -0.121
322943.132 3075939.049 -0.080
322942.963 3075939.154 -0.089
322942.778 3075939.259 -0.124
322942.630 3075939.338 -0.096
322942.462 3075939.472 -0.079
322942.293 3075939.633 -0.106
322942.172 3075939.749 -0.129
322942.032 3075939.905 -0.092
322941.863 3075940.021 -0.113
322941.722 3075940.106 -0.129
322941.565 3075940.227 -0.095
322941.431 3075940.361 -0.088
322941.279 3075940.515 -0.134
322941.157 3075940.662 -0.110
322941.010 3075940.791 -0.093
322940.829 3075940.920 -0.117
322940.704 3075941.009 -0.109
322940.556 3075941.165 -0.082
322940.415 3075941.362 -0.103
322940.309 3075941.514 -0.117
322940.167 3075941.672 -0.088
322939.987 3075941.820 -0.099
322939.862 3075941.910 -0.114
322939.696 3075942.064 -0.078
322939.559 3075942.238 -0.081
322939.432 3075942.369 -0.118
322939.299 3075942.525 -0.083
322939.144 3075942.652 -0.101
322938.978 3075942.782 -0.134
322938.823 3075942.874 -0.101
322938.684 3075943.018 -0.087
322938.538 3075943.186 -0.122
322938.427 3075943.346 -0.120
322938.300 3075943.509 -0.102
322938.144 3075943.658 -0.129
322938.044 3075943.738 -0.123
322937.898 3075943.890 -0.079
322937.805 3075944.071 -0.091
322937.696 3075944.229 -0.130
322937.580 3075944.389 -0.083
322937.446 3075944.512 -0.095
322937.313 3075944.621 -0.127
322937.173 3075944.756 -0.084
322937.038 3075944.913 -0.074
322936.893 3075945.065 -0.127
322936.766 3075945.226 -0.089
322936.609 3075945.359 -0.086
322936.437 3075945.491 -0.119
322936.282 3075945.617 -0.082
322936.148 3075945.787 -0.065
322935.988 3075945.968 -0.125
322935.852 3075946.130 -0.093
322935.694 3075946.264 -0.098
322935.510 3075946.395 -0.128
322935.359 3075946.491 -0.098
322935.205 3075946.634 -0.090
322935.050 3075946.794 -0.112
322934.941 3075946.937 -0.122
322934.795 3075947.096 -0.082
322934.618 3075947.220 -0.101
322934.502 3075947.304 -0.115
322934.331 3075947.455 -0.076
322934.198 3075947.661 -0.090
322934.066 3075947.831 -0.136
322933.926 3075948.000 -0.098
322933.760 3075948.146 -0.106
322933.641 3075948.218 -0.106
322933.489 3075948.336 -0.063
322933.385 3075948.484 -0.059
322933.240 3075948.656 -0.114
322933.120 3075948.828 -0.087
322932.965 3075948.962 -0.087
322932.802 3075949.074 -0.122
322932.629 3075949.196 -0.100
322932.481 3075949.340 -0.090
322932.274 3075949.494 -0.122
322932.137 3075949.622 -0.109
322931.985 3075949.742 -0.073
322931.802 3075949.840 -0.084
322931.664 3075949.889 -0.092
322931.469 3075950.003 -0.063
322931.277 3075950.149 -0.084
322931.116 3075950.263 -0.106
322930.928 3075950.389 -0.070
322930.721 3075950.468 -0.081
322930.562 3075950.497 -0.114
322930.353 3075950.591 -0.078
322930.129 3075950.754 -0.090
322929.949 3075950.859 -0.129
322929.752 3075950.979 -0.085
322929.526 3075951.075 -0.090
322929.351 3075951.149 -0.128
322929.139 3075951.248 -0.086
322928.949 3075951.380 -0.086
322928.777 3075951.484 -0.126
322928.575 3075951.609 -0.088
322928.353 3075951.698 -0.106
322928.192 3075951.763 -0.143
322927.995 3075951.877 -0.098
322927.840 3075952.040 -0.091
322927.673 3075952.206 -0.143
322927.522 3075952.364 -0.100
322927.365 3075952.496 -0.107
322927.216 3075952.632 -0.137
322927.070 3075952.747 -0.105
322926.963 3075952.938 -0.097
322926.848 3075953.177 -0.151
322926.768 3075953.379 -0.125
322926.664 3075953.553 -0.110
322926.533 3075953.746 -0.143
322926.421 3075953.879 -0.117
322926.310 3075954.060 -0.088
322926.184 3075954.280 -0.128
322926.114 3075954.455 -0.112
322926.013 3075954.628 -0.093
322925.872 3075954.821 -0.118
322925.784 3075954.936 -0.116
322925.688 3075955.147 -0.081
322925.631 3075955.420 -0.107
322925.594 3075955.620 -0.116
322925.533 3075955.834 -0.080
322925.442 3075956.039 -0.095
322925.371 3075956.162 -0.109
322925.311 3075956.389 -0.064
322925.335 3075956.668 -0.069
322925.329 3075956.872 -0.091
322925.323 3075957.088 -0.050
322925.292 3075957.313 -0.056
322925.249 3075957.456 -0.069
322925.232 3075957.690 -0.021
322925.266 3075957.923 -0.015
322925.261 3075958.119 -0.057
322925.245 3075958.332 -0.005
322925.178 3075958.522 -0.009
322925.107 3075958.679 -0.047
322925.029 3075958.881 0.002
322924.999 3075959.100 0.016
322924.934 3075959.309 -0.044
322924.883 3075959.516 0.015
322924.773 3075959.687 0.017
322924.674 3075959.826 -0.018
322924.553 3075959.987 0.019
322924.464 3075960.174 0.029
322924.347 3075960.361 -0.008
322924.257 3075960.541 0.014
322924.146 3075960.704 0.027
322923.998 3075960.855 0.012
322923.894 3075960.908 0.012
322923.738 3075961.053 0.039
322923.603 3075961.253 0.021
322923.524 3075961.396 0.007
322923.424 3075961.565 0.047
322923.321 3075961.703 0.051
322923.186 3075961.747 0.013
322923.052 3075961.761 0.039
322923.009 3075961.763 0.048
322922.994 3075961.785 0.037
322923.041 3075961.845 0.048
322922.895 3075962.061 0.036
322922.788 3075962.284 0.076
322922.700 3075962.407 0.099
322922.622 3075962.467 0.097
322922.548 3075962.539 0.074
322922.486 3075962.574 0.063
322922.411 3075962.611 0.060
322922.331 3075962.607 0.073
322922.247 3075962.677 0.079
322922.178 3075962.793 0.069
322922.107 3075962.941 0.044
322922.058 3075963.052 0.071
322921.953 3075963.144 0.057
322921.851 3075963.211 0.043
322921.732 3075963.297 0.069
322921.616 3075963.422 0.066
322921.474 3075963.549 0.023
322921.372 3075963.659 0.055
322921.233 3075963.777 0.058
322921.056 3075963.891 0.017
322920.935 3075963.982 0.036
322920.779 3075964.107 0.060
322920.617 3075964.267 0.043
322920.503 3075964.381 0.032
322920.360 3075964.529 0.067
322920.178 3075964.637 0.050
322920.047 3075964.721 0.021
322919.866 3075964.851 0.061
322919.695 3075965.008 0.051
322919.527 3075965.129 0.002
322919.358 3075965.276 0.036
322919.171 3075965.376 0.035
322919.003 3075965.462 0.008
322918.830 3075965.576 0.047
322918.659 3075965.730 0.049
322918.471 3075965.869 0.000
322918.308 3075966.004 0.031
322918.132 3075966.114 0.037
322917.943 3075966.209 -0.014
322917.765 3075966.291 0.028
322917.589 3075966.452 0.036
322917.375 3075966.612 -0.020
322917.216 3075966.742 0.008
322917.032 3075966.861 0.014
322916.830 3075966.957 -0.021
322916.659 3075967.057 0.011
322916.477 3075967.200 0.023
322916.278 3075967.358 -0.020
322916.115 3075967.503 -0.005
322915.938 3075967.627 0.008
322915.729 3075967.753 -0.026
322915.571 3075967.846 -0.007
322915.399 3075968.006 0.009
322915.215 3075968.196 -0.014
322915.081 3075968.337 -0.024
322914.923 3075968.484 0.010
322914.728 3075968.616 -0.015
322914.593 3075968.686 -0.019
322914.406 3075968.829 0.008
322914.240 3075969.017 -0.008
322914.105 3075969.153 -0.039
322913.936 3075969.305 -0.002
322913.727 3075969.437 -0.020
322913.580 3075969.523 -0.040
322913.381 3075969.673 -0.006
322913.226 3075969.862 -0.007
322913.073 3075970.007 -0.051
322912.894 3075970.178 -0.009
322912.701 3075970.303 -0.029
322912.562 3075970.379 -0.047
322912.383 3075970.506 0.005
322912.232 3075970.677 0.003
322912.073 3075970.819 -0.056
322911.926 3075970.960 -0.010
322911.750 3075971.079 -0.014
322911.571 3075971.192 -0.061
322911.397 3075971.312 -0.025
322911.244 3075971.477 -0.013
322911.065 3075971.635 -0.063
322910.923 3075971.794 -0.034
322910.752 3075971.928 -0.017
322910.566 3075972.066 -0.053
322910.411 3075972.156 -0.039
322910.252 3075972.311 -0.026
322910.077 3075972.507 -0.069
322909.950 3075972.655 -0.066
322909.799 3075972.806 -0.027
322909.607 3075972.942 -0.048
322909.480 3075973.033 -0.045
322909.309 3075973.182 -0.014
322909.139 3075973.367 -0.029
322908.998 3075973.502 -0.062
322908.828 3075973.662 -0.020
322908.630 3075973.813 -0.039
322908.502 3075973.906 -0.049
322908.321 3075974.048 -0.004
322908.186 3075974.237 -0.006
322908.040 3075974.389 -0.059
322907.885 3075974.551 -0.021
322907.711 3075974.667 -0.032
322907.568 3075974.759 -0.059
322907.398 3075974.883 -0.011
322907.248 3075975.046 -0.003
322907.082 3075975.183 -0.053
322906.926 3075975.347 -0.017
322906.755 3075975.465 -0.023
322906.580 3075975.584 -0.063
322906.411 3075975.692 -0.027
322906.247 3075975.846 -0.019
322906.066 3075976.023 -0.066
322905.935 3075976.171 -0.051
322905.770 3075976.294 -0.030
322905.574 3075976.410 -0.065
322905.418 3075976.497 -0.044
322905.249 3075976.646 -0.020
322905.057 3075976.830 -0.053
322904.927 3075976.974 -0.046
322904.767 3075977.117 -0.016
322904.559 3075977.250 -0.053
322904.418 3075977.331 -0.055
322904.238 3075977.482 -0.026
322904.075 3075977.668 -0.039
322903.943 3075977.812 -0.067
322903.783 3075977.968 -0.029
322903.594 3075978.121 -0.047
322903.475 3075978.220 -0.060
322903.298 3075978.371 -0.027
322903.158 3075978.534 -0.031
322903.024 3075978.661 -0.079
322902.881 3075978.821 -0.027
322902.718 3075978.945 -0.029
322902.553 3075979.068 -0.078
322902.351 3075979.198 -0.042
322902.193 3075979.382 -0.037
322902.033 3075979.528 -0.083
322901.883 3075979.677 -0.041
322901.705 3075979.807 -0.037
322901.519 3075979.932 -0.080
322901.347 3075980.024 -0.045
322901.193 3075980.176 -0.036
322900.996 3075980.353 -0.082
322900.851 3075980.510 -0.074
322900.687 3075980.646 -0.054
322900.492 3075980.799 -0.084
322900.353 3075980.899 -0.060
322900.194 3075981.064 -0.035
322900.028 3075981.265 -0.063
322899.907 3075981.418 -0.084
322899.762 3075981.580 -0.049
322899.584 3075981.722 -0.083
322899.459 3075981.821 -0.074
322899.295 3075981.968 -0.045
322899.151 3075982.139 -0.060
322899.012 3075982.273 -0.106
322898.843 3075982.449 -0.066
322898.663 3075982.567 -0.076
322898.529 3075982.658 -0.097
322898.360 3075982.775 -0.049
322898.227 3075982.928 -0.039
322898.031 3075983.070 -0.099
322897.870 3075983.219 -0.054
322897.702 3075983.337 -0.049
322897.519 3075983.466 -0.100
322897.364 3075983.571 -0.066
322897.203 3075983.706 -0.045
322897.017 3075983.867 -0.087
322896.877 3075983.994 -0.088
322896.712 3075984.136 -0.062
322896.512 3075984.255 -0.088
322896.370 3075984.325 -0.091
322896.186 3075984.478 -0.055
322895.986 3075984.665 -0.083
322895.844 3075984.797 -0.101
322895.667 3075984.937 -0.070
322895.457 3075985.075 -0.089
322895.311 3075985.168 -0.098
322895.118 3075985.304 -0.060
322894.929 3075985.483 -0.094
322894.784 3075985.605 -0.104
322894.605 3075985.746 -0.067
322894.386 3075985.873 -0.096
322894.248 3075985.965 -0.100
322894.062 3075986.111 -0.066
322893.875 3075986.298 -0.079
322893.738 3075986.428 -0.112
322893.569 3075986.581 -0.074
322893.375 3075986.708 -0.082
322893.238 3075986.798 -0.118
322893.049 3075986.938 -0.064
322892.901 3075987.115 -0.074
322892.745 3075987.251 -0.126
322892.593 3075987.403 -0.080
322892.416 3075987.522 -0.080
322892.265 3075987.617 -0.125
322892.078 3075987.759 -0.081
322891.927 3075987.948 -0.080
322891.765 3075988.116 -0.135
322891.617 3075988.283 -0.092
322891.442 3075988.428 -0.091
322891.299 3075988.530 -0.129
322891.125 3075988.672 -0.082
322890.987 3075988.844 -0.071
322890.825 3075989.007 -0.127
322890.676 3075989.177 -0.083
322890.507 3075989.297 -0.084
322890.329 3075989.414 -0.117
322890.156 3075989.519 -0.090
322890.002 3075989.668 -0.074
322889.828 3075989.834 -0.119
322889.705 3075989.990 -0.099
322889.550 3075990.131 -0.083
322889.367 3075990.275 -0.105
322889.232 3075990.366 -0.105
322889.070 3075990.533 -0.077
322888.920 3075990.732 -0.104
322888.811 3075990.888 -0.112
322888.676 3075991.062 -0.079
322888.506 3075991.206 -0.088
322888.383 3075991.296 -0.112
322888.208 3075991.441 -0.080
322888.085 3075991.612 -0.084
322887.948 3075991.764 -0.128
322887.825 3075991.938 -0.092
322887.679 3075992.077 -0.094
322887.525 3075992.222 -0.124
322887.387 3075992.337 -0.087
322887.261 3075992.504 -0.074
322887.096 3075992.686 -0.117
322886.972 3075992.853 -0.108
322886.834 3075993.004 -0.081
322886.662 3075993.152 -0.108
322886.528 3075993.257 -0.094
322886.372 3075993.414 -0.074
322886.215 3075993.582 -0.106
322886.091 3075993.719 -0.114
322885.921 3075993.859 -0.083
322885.720 3075993.980 -0.103
322885.579 3075994.059 -0.111
322885.391 3075994.204 -0.071
322885.211 3075994.392 -0.089
322885.074 3075994.544 -0.120
322884.904 3075994.706 -0.093
322884.702 3075994.844 -0.105
322884.565 3075994.939 -0.114
322884.395 3075995.101 -0.075
322884.249 3075995.279 -0.082
322884.112 3075995.437 -0.127
322883.952 3075995.612 -0.088
322883.780 3075995.740 -0.101
322883.640 3075995.824 -0.132
322883.475 3075995.952 -0.089
322883.331 3075996.117 -0.086
322883.169 3075996.261 -0.146
322883.019 3075996.427 -0.100
322882.850 3075996.562 -0.102
322882.683 3075996.686 -0.144
322882.514 3075996.794 -0.106
322882.365 3075996.958 -0.091
322882.184 3075997.122 -0.133
322882.043 3075997.268 -0.118
322881.883 3075997.408 -0.098
322881.709 3075997.556 -0.140
322881.560 3075997.659 -0.105
322881.406 3075997.817 -0.091
322881.225 3075997.987 -0.119
322881.103 3075998.136 -0.129
322880.951 3075998.285 -0.096
322880.760 3075998.432 -0.123
322880.628 3075998.522 -0.124
322880.459 3075998.675 -0.091
322880.281 3075998.866 -0.114
322880.152 3075999.024 -0.133
322879.997 3075999.186 -0.105
322879.803 3075999.333 -0.127
322879.674 3075999.421 -0.130
322879.506 3075999.566 -0.083
322879.329 3075999.735 -0.105
322879.185 3075999.899 -0.119
322879.000 3076000.056 -0.084
322878.805 3076000.192 -0.109
322878.654 3076000.275 -0.133
322878.478 3076000.418 -0.092
322878.317 3076000.589 -0.102
322878.186 3076000.724 -0.137
322878.033 3076000.878 -0.095
322877.872 3076001.013 -0.107
322877.735 3076001.131 -0.148
322877.561 3076001.249 -0.100
322877.429 3076001.423 -0.084
322877.274 3076001.576 -0.136
322877.135 3076001.740 -0.094
322876.980 3076001.894 -0.094
322876.824 3076002.018 -0.126
322876.678 3076002.139 -0.089
322876.543 3076002.308 -0.073
322876.382 3076002.498 -0.102
322876.275 3076002.661 -0.094
322876.141 3076002.816 -0.076
322875.965 3076002.967 -0.103
322875.836 3076003.046 -0.104
322875.681 3076003.186 -0.079
322875.539 3076003.352 -0.089
322875.433 3076003.497 -0.115
322875.283 3076003.660 -0.075
322875.116 3076003.793 -0.089
322874.984 3076003.895 -0.108
322874.815 3076004.034 -0.072
322874.682 3076004.207 -0.076
322874.541 3076004.370 -0.128
322874.412 3076004.518 -0.086
322874.253 3076004.630 -0.085
322874.081 3076004.724 -0.124
322873.935 3076004.815 -0.093
322873.786 3076004.945 -0.080
322873.612 3076005.106 -0.122
322873.493 3076005.246 -0.095
322873.331 3076005.388 -0.081
322873.143 3076005.525 -0.100
322873.004 3076005.605 -0.105
322872.836 3076005.747 -0.074
322872.703 3076005.918 -0.080
322872.580 3076006.062 -0.112
322872.448 3076006.226 -0.076
322872.291 3076006.356 -0.077
322872.147 3076006.476 -0.128
322871.983 3076006.608 -0.085
322871.852 3076006.782 -0.080
322871.715 3076006.954 -0.128
322871.577 3076007.128 -0.095
322871.419 3076007.255 -0.080
322871.261 3076007.387 -0.124
322871.100 3076007.528 -0.083
322870.957 3076007.703 -0.072
322870.797 3076007.868 -0.132
322870.649 3076008.044 -0.091
322870.480 3076008.191 -0.093
322870.321 3076008.312 -0.125
322870.152 3076008.459 -0.092
322870.022 3076008.634 -0.078
322869.861 3076008.807 -0.130
322869.718 3076008.983 -0.100
322869.549 3076009.109 -0.096
322869.371 3076009.227 -0.120
322869.221 3076009.327 -0.097
322869.063 3076009.481 -0.070
322868.889 3076009.681 -0.127
322868.772 3076009.824 -0.098
322868.621 3076009.955 -0.076
322868.426 3076010.105 -0.109
322868.292 3076010.232 -0.088
322868.131 3076010.386 -0.058
322868.010 3076010.578 -0.080
322867.923 3076010.744 -0.106
322867.807 3076010.905 -0.068
322867.659 3076011.010 -0.078
322867.509 3076011.105 -0.128
322867.345 3076011.223 -0.081
322867.191 3076011.395 -0.082
322867.029 3076011.537 -0.121
322866.872 3076011.685 -0.085
322866.712 3076011.803 -0.082
322866.556 3076011.921 -0.122
322866.396 3076012.053 -0.087
322866.255 3076012.214 -0.071
322866.089 3076012.378 -0.111
322865.968 3076012.532 -0.098
322865.814 3076012.680 -0.080
322865.616 3076012.806 -0.105
322865.484 3076012.898 -0.102
322865.311 3076013.043 -0.074
322865.139 3076013.234 -0.100
322865.020 3076013.377 -0.116
322864.875 3076013.537 -0.075
322864.696 3076013.691 -0.094
322864.582 3076013.784 -0.106
322864.412 3076013.932 -0.067
322864.263 3076014.115 -0.075
322864.117 3076014.261 -0.128
322863.957 3076014.424 -0.084
322863.781 3076014.528 -0.093
322863.622 3076014.613 -0.138
322863.428 3076014.707 -0.088
322863.249 3076014.873 -0.077
322863.089 3076015.007 -0.117
322862.907 3076015.174 -0.083
322862.724 3076015.306 -0.096
322862.565 3076015.409 -0.127
322862.392 3076015.542 -0.083
322862.242 3076015.730 -0.088
322862.075 3076015.914 -0.146
322861.928 3076016.070 -0.122
322861.783 3076016.208 -0.117
322861.647 3076016.311 -0.138
322861.503 3076016.443 -0.094
322861.372 3076016.598 -0.083
322861.193 3076016.760 -0.130
322861.050 3076016.919 -0.112
322860.892 3076017.056 -0.105
322860.711 3076017.205 -0.143
322860.581 3076017.306 -0.125
322860.427 3076017.460 -0.092
322860.268 3076017.655 -0.113
322860.152 3076017.807 -0.139
322860.008 3076017.968 -0.110
322859.824 3076018.118 -0.122
322859.698 3076018.213 -0.125
322859.534 3076018.375 -0.088
322859.382 3076018.559 -0.099
322859.255 3076018.698 -0.135
322859.107 3076018.867 -0.090
322858.945 3076018.993 -0.105
322858.815 3076019.089 -0.143
322858.650 3076019.219 -0.100
322858.512 3076019.381 -0.093
322858.357 3076019.538 -0.142
322858.227 3076019.704 -0.101
322858.077 3076019.833 -0.099
322857.916 3076019.960 -0.129
322857.776 3076020.082 -0.104
322857.622 3076020.250 -0.085
322857.476 3076020.437 -0.121
322857.370 3076020.565 -0.121
322857.236 3076020.717 -0.077
322857.071 3076020.859 -0.100
322856.959 3076020.954 -0.109
322856.806 3076021.108 -0.070
322856.662 3076021.287 -0.079
322856.540 3076021.439 -0.113
322856.393 3076021.608 -0.068
322856.225 3076021.744 -0.087
322856.100 3076021.840 -0.105
322855.947 3076021.989 -0.060
322855.826 3076022.154 -0.066
322855.678 3076022.305 -0.112
322855.557 3076022.463 -0.076
322855.418 3076022.594 -0.065
322855.260 3076022.701 -0.104
322855.101 3076022.797 -0.071
322854.949 3076022.954 -0.066
322854.749 3076023.138 -0.110
322854.619 3076023.281 -0.099
322854.469 3076023.424 -0.075
322854.273 3076023.576 -0.095
322854.134 3076023.656 -0.097
322853.969 3076023.811 -0.067
322853.816 3076023.991 -0.086
322853.687 3076024.148 -0.104
322853.544 3076024.294 -0.079
322853.362 3076024.444 -0.089
322853.219 3076024.547 -0.111
322853.059 3076024.694 -0.066
322852.918 3076024.877 -0.075
322852.796 3076025.021 -0.112
322852.641 3076025.174 -0.080
322852.476 3076025.290 -0.099
322852.340 3076025.393 -0.131
322852.184 3076025.517 -0.080
322852.054 3076025.696 -0.069
322851.915 3076025.869 -0.107
322851.802 3076026.018 -0.077
322851.671 3076026.159 -0.068
322851.518 3076026.293 -0.101
322851.399 3076026.361 -0.077
322851.269 3076026.494 -0.053
322851.169 3076026.645 -0.056
322851.074 3076026.791 -0.091
322850.965 3076026.933 -0.044
322850.843 3076027.048 -0.056
322850.705 3076027.166 -0.080
322850.593 3076027.213 -0.059
322850.469 3076027.324 -0.045
322850.392 3076027.450 -0.050
322850.331 3076027.594 -0.085
322850.273 3076027.712 -0.046
322850.146 3076027.782 -0.048
322850.011 3076027.785 -0.057
322849.931 3076027.739 -0.054
322849.815 3076027.745 -0.054
322849.774 3076027.717 -0.058
322849.765 3076027.717 -0.065
322849.798 3076027.764 -0.060
322849.741 3076027.934 -0.063
322849.688 3076028.112 -0.040
322849.629 3076028.230 -0.028
322849.582 3076028.314 -0.024
322849.545 3076028.352 -0.029
322849.485 3076028.376 -0.043
322849.432 3076028.419 -0.050
322849.406 3076028.441 -0.049
322849.322 3076028.421 -0.051
322849.249 3076028.412 -0.049
322849.189 3076028.461 -0.042
322849.145 3076028.545 -0.052
322849.127 3076028.645 -0.045
322849.044 3076028.711 -0.036
322848.943 3076028.732 -0.044
322848.851 3076028.732 -0.045
322848.728 3076028.782 -0.032
322848.591 3076028.865 -0.057
322848.451 3076028.940 -0.079
322848.313 3076029.025 -0.049
322848.143 3076029.057 -0.071
322847.991 3076029.070 -0.099
322847.816 3076029.099 -0.056
322847.635 3076029.223 -0.060
322847.444 3076029.333 -0.098
322847.294 3076029.430 -0.066
322847.131 3076029.543 -0.054
322846.943 3076029.641 -0.089
322846.822 3076029.688 -0.104
322846.650 3076029.805 -0.069
322846.515 3076029.969 -0.071
322846.387 3076030.125 -0.111
322846.249 3076030.290 -0.065
322846.086 3076030.422 -0.075
322845.941 3076030.538 -0.113
322845.777 3076030.680 -0.074
322845.644 3076030.849 -0.071
322845.491 3076031.007 -0.117
322845.369 3076031.161 -0.077
322845.220 3076031.284 -0.068
322845.048 3076031.414 -0.108
322844.894 3076031.520 -0.073
322844.743 3076031.695 -0.056
322844.572 3076031.883 -0.100
322844.440 3076032.053 -0.082
322844.296 3076032.204 -0.064
322844.125 3076032.351 -0.109
322843.999 3076032.443 -0.075
322843.864 3076032.605 -0.052
322843.738 3076032.809 -0.067
322843.637 3076032.978 -0.092
322843.516 3076033.150 -0.073
322843.347 3076033.255 -0.070
322843.211 3076033.356 -0.108
322843.039 3076033.503 -0.069
322842.901 3076033.692 -0.064
322842.766 3076033.852 -0.119
322842.625 3076034.036 -0.071
322842.470 3076034.190 -0.075
322842.348 3076034.320 -0.102
322842.201 3076034.473 -0.056
322842.091 3076034.660 -0.039
322841.959 3076034.862 -0.091
322841.852 3076035.053 -0.058
322841.716 3076035.212 -0.049
322841.570 3076035.357 -0.089
322841.448 3076035.480 -0.059
322841.326 3076035.658 -0.049
322841.191 3076035.867 -0.087
322841.107 3076036.046 -0.086
322840.968 3076036.207 -0.053
322840.799 3076036.355 -0.078
322840.671 3076036.465 -0.067
322840.529 3076036.623 -0.035
322840.369 3076036.832 -0.064
322840.254 3076036.991 -0.077
322840.120 3076037.168 -0.035
322839.954 3076037.338 -0.055
322839.845 3076037.450 -0.070
322839.691 3076037.612 -0.022
322839.580 3076037.805 -0.032
322839.482 3076037.970 -0.071
322839.361 3076038.168 -0.035
322839.200 3076038.323 -0.052
322839.080 3076038.443 -0.083
322838.924 3076038.607 -0.040
322838.804 3076038.804 -0.043
322838.666 3076038.966 -0.084
322838.532 3076039.152 -0.052
322838.383 3076039.292 -0.060
322838.231 3076039.441 -0.086
322838.077 3076039.585 -0.051
322837.946 3076039.766 -0.032
322837.802 3076039.942 -0.081
322837.687 3076040.112 -0.039
322837.533 3076040.259 -0.040
322837.359 3076040.421 -0.088
322837.218 3076040.556 -0.063
322837.086 3076040.728 -0.040
322836.929 3076040.940 -0.090
322836.814 3076041.096 -0.065
322836.674 3076041.241 -0.041
322836.502 3076041.393 -0.071
322836.376 3076041.523 -0.051
322836.235 3076041.702 -0.021
322836.081 3076041.907 -0.062
322835.948 3076042.080 -0.059
322835.807 3076042.240 -0.038
322835.631 3076042.395 -0.072
322835.498 3076042.510 -0.047
322835.353 3076042.688 -0.028
322835.185 3076042.879 -0.059
322835.073 3076043.040 -0.046
322834.920 3076043.207 -0.034
322834.730 3076043.376 -0.063
322834.583 3076043.478 -0.047
322834.423 3076043.649 -0.023
322834.262 3076043.844 -0.050
322834.134 3076043.992 -0.050
322833.978 3076044.145 -0.025
322833.782 3076044.293 -0.046
322833.632 3076044.402 -0.060
322833.465 3076044.561 -0.026
322833.279 3076044.766 -0.063
322833.151 3076044.939 -0.060
322832.991 3076045.102 -0.043
322832.814 3076045.262 -0.076
322832.670 3076045.405 -0.046
322832.519 3076045.599 -0.019
322832.345 3076045.820 -0.061
322832.229 3076046.003 -0.044
322832.081 3076046.171 -0.028
322831.916 3076046.353 -0.068
322831.776 3076046.522 -0.041
322831.644 3076046.711 -0.014
322831.476 3076046.907 -0.064
322831.343 3076047.078 -0.042
322831.199 3076047.228 -0.025
322831.031 3076047.393 -0.075
322830.878 3076047.551 -0.037
322830.734 3076047.733 -0.015
322830.564 3076047.899 -0.078
322830.422 3076048.081 -0.043
322830.258 3076048.236 -0.033
322830.089 3076048.380 -0.076
322829.917 3076048.519 -0.042
322829.765 3076048.705 -0.030
322829.595 3076048.878 -0.079
322829.449 3076049.059 -0.050
322829.285 3076049.203 -0.045
322829.104 3076049.342 -0.085
322828.940 3076049.458 -0.051
322828.793 3076049.636 -0.039
322828.608 3076049.829 -0.079
322828.470 3076049.994 -0.058
322828.316 3076050.149 -0.042
322828.143 3076050.289 -0.070
322827.992 3076050.392 -0.052
322827.830 3076050.565 -0.033
322827.659 3076050.756 -0.080
322827.529 3076050.921 -0.067
322827.375 3076051.072 -0.053
322827.202 3076051.233 -0.085
322827.054 3076051.347 -0.050
322826.920 3076051.521 -0.027
322826.746 3076051.736 -0.073
322826.618 3076051.917 -0.052
322826.459 3076052.068 -0.041
322826.285 3076052.221 -0.087
322826.131 3076052.353 -0.059
322825.992 3076052.560 -0.045
322825.848 3076052.760 -0.099
322825.724 3076052.945 -0.072
322825.569 3076053.108 -0.066
322825.421 3076053.254 -0.097
322825.277 3076053.413 -0.049
322825.145 3076053.618 -0.032
322825.000 3076053.809 -0.095
322824.867 3076054.001 -0.056
322824.709 3076054.154 -0.060
322824.576 3076054.292 -0.091
322824.425 3076054.451 -0.044
322824.301 3076054.641 -0.036
322824.150 3076054.817 -0.092
322824.004 3076054.996 -0.053
322823.842 3076055.157 -0.047
322823.697 3076055.296 -0.087
322823.551 3076055.461 -0.048
322823.424 3076055.654 -0.043
322823.273 3076055.815 -0.105
322823.140 3076055.999 -0.069
322822.984 3076056.156 -0.067
322822.839 3076056.319 -0.101
322822.685 3076056.470 -0.061
322822.561 3076056.646 -0.043
322822.392 3076056.830 -0.093
322822.267 3076056.999 -0.062
322822.120 3076057.136 -0.054
322821.939 3076057.298 -0.092
322821.800 3076057.416 -0.074
322821.649 3076057.573 -0.058
322821.471 3076057.742 -0.092
322821.348 3076057.890 -0.079
322821.190 3076058.046 -0.055
322821.007 3076058.211 -0.087
322820.871 3076058.319 -0.075
322820.711 3076058.473 -0.040
322820.531 3076058.664 -0.074
322820.412 3076058.815 -0.073
322820.259 3076058.970 -0.047
322820.066 3076059.134 -0.078
322819.925 3076059.244 -0.069
322819.768 3076059.428 -0.045
322819.600 3076059.650 -0.086
322819.481 3076059.829 -0.068
322819.326 3076059.996 -0.047
322819.148 3076060.168 -0.086
322819.003 3076060.298 -0.063
322818.861 3076060.491 -0.046
322818.706 3076060.706 -0.099
322818.584 3076060.886 -0.074
322818.442 3076061.048 -0.061
322818.269 3076061.215 -0.090
322818.156 3076061.330 -0.059
322818.037 3076061.501 -0.036
322817.876 3076061.717 -0.076
322817.765 3076061.884 -0.069
322817.626 3076062.052 -0.053
322817.457 3076062.229 -0.085
322817.336 3076062.350 -0.057
322817.193 3076062.520 -0.033
322817.046 3076062.723 -0.065
322816.934 3076062.895 -0.056
322816.794 3076063.070 -0.036
322816.630 3076063.250 -0.072
322816.498 3076063.392 -0.049
322816.372 3076063.572 -0.028
322816.228 3076063.792 -0.060
322816.137 3076063.963 -0.076
322816.014 3076064.146 -0.046
322815.861 3076064.330 -0.074
322815.749 3076064.432 -0.075
322815.614 3076064.592 -0.045
322815.466 3076064.794 -0.059
322815.374 3076064.961 -0.088
322815.231 3076065.141 -0.050
322815.051 3076065.296 -0.056
322814.927 3076065.407 -0.065
322814.770 3076065.577 -0.022
322814.601 3076065.791 -0.046
322814.474 3076065.946 -0.061
322814.326 3076066.115 -0.030
322814.142 3076066.283 -0.059
322814.012 3076066.399 -0.056
322813.857 3076066.568 -0.028
322813.706 3076066.758 -0.054
322813.573 3076066.913 -0.075
322813.436 3076067.079 -0.048
322813.272 3076067.231 -0.072
322813.154 3076067.351 -0.071
322813.003 3076067.516 -0.033
322812.862 3076067.710 -0.049
322812.758 3076067.878 -0.076
322812.610 3076068.052 -0.053
322812.422 3076068.190 -0.066
322812.302 3076068.281 -0.073
322812.148 3076068.435 -0.038
322811.999 3076068.610 -0.045
322811.854 3076068.762 -0.083
322811.685 3076068.954 -0.060
322811.482 3076069.138 -0.073
322811.361 3076069.239 -0.079
322811.193 3076069.422 -0.047
322811.041 3076069.651 -0.070
322810.941 3076069.824 -0.095
322810.811 3076070.019 -0.055
322810.641 3076070.206 -0.067
322810.524 3076070.313 -0.076
322810.370 3076070.487 -0.036
322810.215 3076070.695 -0.062
322810.103 3076070.842 -0.081
322809.962 3076071.003 -0.039
322809.769 3076071.152 -0.061
322809.634 3076071.248 -0.075
322809.456 3076071.404 -0.040
322809.274 3076071.596 -0.052
322809.158 3076071.740 -0.065
322808.999 3076071.896 -0.023
322808.800 3076072.031 -0.042
322808.663 3076072.111 -0.058
322808.483 3076072.258 -0.024
322808.315 3076072.452 -0.039
322808.183 3076072.595 -0.062
322808.026 3076072.765 -0.028
322807.842 3076072.913 -0.037
322807.714 3076073.002 -0.061
322807.556 3076073.154 -0.014
322807.435 3076073.335 -0.016
322807.305 3076073.493 -0.069
322807.176 3076073.670 -0.032
322807.016 3076073.828 -0.038
322806.886 3076073.947 -0.080
322806.742 3076074.088 -0.040
322806.622 3076074.238 -0.032
322806.470 3076074.394 -0.078
322806.355 3076074.562 -0.051
322806.205 3076074.704 -0.044
322806.032 3076074.839 -0.050
322805.897 3076074.920 -0.059
322805.749 3076075.065 -0.036
322805.602 3076075.243 -0.051
322805.488 3076075.410 -0.081
322805.350 3076075.567 -0.059
322805.156 3076075.708 -0.082
322805.014 3076075.783 -0.074
322804.833 3076075.906 -0.043
322804.625 3076076.066 -0.084
322804.480 3076076.200 -0.075
322804.301 3076076.340 -0.050
322804.094 3076076.465 -0.071
322803.919 3076076.541 -0.061
322803.723 3076076.669 -0.033
322803.510 3076076.843 -0.069
322803.370 3076077.001 -0.058
322803.184 3076077.150 -0.035
322802.973 3076077.274 -0.070
322802.799 3076077.345 -0.051
322802.608 3076077.486 -0.023
322802.423 3076077.679 -0.057
322802.299 3076077.812 -0.046
322802.163 3076077.932 -0.019
322802.014 3076078.036 -0.035
322801.860 3076078.116 -0.064
322801.709 3076078.200 -0.038
322801.574 3076078.322 -0.039
322801.447 3076078.485 -0.090
322801.369 3076078.633 -0.047
322801.241 3076078.772 -0.031
322801.098 3076078.910 -0.057
322800.953 3076078.995 -0.047
322800.809 3076079.122 -0.025
322800.677 3076079.274 -0.046
322800.561 3076079.422 -0.068
322800.437 3076079.566 -0.039
322800.289 3076079.687 -0.059
322800.173 3076079.759 -0.088
322800.029 3076079.856 -0.042
322799.894 3076080.034 -0.040
322799.765 3076080.208 -0.082
322799.637 3076080.381 -0.048
322799.487 3076080.529 -0.045
322799.336 3076080.653 -0.073
322799.196 3076080.740 -0.046
322799.057 3076080.891 -0.032
322798.943 3076081.084 -0.059
322798.859 3076081.242 -0.072
322798.728 3076081.395 -0.051
322798.565 3076081.536 -0.075
322798.427 3076081.612 -0.071
322798.270 3076081.741 -0.040
322798.145 3076081.950 -0.049
322798.056 3076082.126 -0.069
322797.908 3076082.293 -0.039
322797.732 3076082.411 -0.057
322797.591 3076082.476 -0.076
322797.427 3076082.570 -0.028
322797.273 3076082.725 -0.033
322797.128 3076082.876 -0.072
322796.999 3076083.005 -0.032
322796.852 3076083.118 -0.039
322796.679 3076083.225 -0.080
322796.542 3076083.306 -0.039
322796.420 3076083.420 -0.022
322796.282 3076083.586 -0.053
322796.193 3076083.744 -0.042
322796.050 3076083.896 -0.020
322795.885 3076084.027 -0.036
322795.762 3076084.089 -0.052
322795.608 3076084.210 -0.016
322795.473 3076084.345 -0.015
322795.342 3076084.465 -0.047
322795.203 3076084.602 -0.018
322795.045 3076084.729 -0.018
322794.880 3076084.830 -0.057
322794.720 3076084.927 -0.023
322794.570 3076085.071 -0.011
322794.410 3076085.252 -0.052
322794.311 3076085.405 -0.027
322794.170 3076085.553 -0.009
322794.024 3076085.686 -0.025
322793.891 3076085.707 -0.044
322793.730 3076085.792 -0.032
322793.613 3076085.877 -0.031
322793.521 3076085.999 -0.033
322793.441 3076086.123 -0.033
322793.331 3076086.223 -0.018
322793.201 3076086.283 -0.022
322793.046 3076086.328 -0.051
322792.933 3076086.312 -0.039
322792.783 3076086.356 -0.018
322792.597 3076086.453 -0.051
322792.462 3076086.546 -0.062
322792.288 3076086.617 -0.039
322792.101 3076086.679 -0.041
322791.946 3076086.732 -0.077
322791.738 3076086.829 -0.036
322791.566 3076086.984 -0.029
322791.393 3076087.111 -0.078
322791.225 3076087.255 -0.036
322791.042 3076087.342 -0.044
322790.873 3076087.428 -0.076
322790.696 3076087.513 -0.031
322790.527 3076087.661 -0.014
322790.347 3076087.811 -0.076
322790.188 3076087.949 -0.040
322790.019 3076088.060 -0.029
322789.843 3076088.157 -0.081
322789.678 3076088.243 -0.052
322789.517 3076088.372 -0.033
322789.323 3076088.516 -0.071
322789.176 3076088.642 -0.063
322788.999 3076088.763 -0.041
322788.800 3076088.880 -0.064
322788.663 3076088.938 -0.065
322788.474 3076089.069 -0.035
322788.307 3076089.248 -0.044
322788.196 3076089.370 -0.079
322788.040 3076089.525 -0.038
322787.853 3076089.643 -0.057
322787.731 3076089.732 -0.077
322787.557 3076089.844 -0.041
322787.421 3076090.000 -0.039
322787.258 3076090.144 -0.089
322787.128 3076090.301 -0.048
322786.975 3076090.423 -0.044
322786.796 3076090.544 -0.073
322786.662 3076090.624 -0.059
322786.508 3076090.745 -0.033
322786.357 3076090.902 -0.043
322786.232 3076091.021 -0.082
322786.088 3076091.165 -0.038
322785.914 3076091.269 -0.057
322785.781 3076091.343 -0.086
322785.597 3076091.464 -0.038
322785.439 3076091.659 -0.037
322785.312 3076091.823 -0.077
322785.165 3076091.977 -0.030
322784.989 3076092.079 -0.040
322784.847 3076092.161 -0.087
322784.711 3076092.242 -0.037
322784.593 3076092.345 -0.034
322784.440 3076092.492 -0.059
322784.326 3076092.649 -0.044
322784.242 3076092.809 0.003
322784.184 3076092.922 -0.002
