323109.273 3075862.150 2.332
323109.255 3075862.149 2.332
323109.239 3075862.124 2.334
323109.210 3075862.076 2.336
323109.132 3075862.017 2.340
323109.029 3075861.982 2.339
323108.913 3075861.967 2.331
323108.826 3075861.957 2.320
323108.744 3075861.923 2.303
323108.755 3075861.869 2.297
323108.718 3075861.900 2.294
323108.783 3075861.805 2.292
323108.741 3075861.724 2.267
323108.685 3075861.669 2.240
323108.605 3075861.650 2.213
323108.557 3075861.616 2.192
323108.496 3075861.575 2.166
323108.472 3075861.535 2.152
323108.486 3075861.468 2.143
323108.466 3075861.384 2.126
323108.430 3075861.332 2.111
323108.379 3075861.251 2.086
323108.293 3075861.212 2.056
323108.183 3075861.158 2.011
323108.071 3075861.067 1.962
323108.024 3075860.977 1.935
323107.992 3075860.896 1.917
323107.912 3075860.814 1.897
323107.844 3075860.742 1.883
323107.771 3075860.736 1.876
323107.692 3075860.691 1.869
323107.616 3075860.657 1.862
323107.601 3075860.594 1.858
323107.594 3075860.529 1.854
323107.542 3075860.451 1.845
323107.477 3075860.378 1.832
323107.385 3075860.337 1.817
323107.281 3075860.338 1.804
323107.190 3075860.320 1.790
323107.127 3075860.298 1.780
323107.105 3075860.249 1.772
323107.043 3075860.222 1.763
323106.975 3075860.173 1.754
323106.853 3075860.185 1.749
323106.719 3075860.235 1.748
323106.561 3075860.263 1.750
323106.414 3075860.275 1.752
323106.299 3075860.237 1.751
323106.219 3075860.194 1.746
323106.058 3075860.137 1.733
323105.924 3075860.076 1.726
323105.782 3075860.059 1.724
323105.597 3075860.028 1.716
323105.408 3075859.981 1.694
323105.281 3075859.922 1.672
323105.218 3075859.875 1.659
323105.190 3075859.822 1.649
323105.092 3075859.729 1.621
323104.978 3075859.645 1.591
323104.834 3075859.574 1.566
323104.660 3075859.459 1.548
323104.550 3075859.351 1.541
323104.541 3075859.247 1.540
323104.435 3075859.117 1.540
323104.320 3075859.006 1.548
323104.178 3075858.900 1.536
323104.046 3075858.744 1.530
323104.997 3075857.492 1.529
323105.017 3075857.463 1.529
323104.942 3075857.546 1.529
323104.913 3075857.568 1.529
323105.021 3075857.436 1.529
323104.884 3075857.583 1.529
323105.005 3075857.430 1.529
323104.861 3075857.594 1.529
323104.731 3075857.738 1.529
323104.859 3075857.584 1.529
323104.880 3075857.556 1.529
323104.970 3075857.445 1.529
323104.752 3075857.698 1.529
323104.638 3075857.831 1.529
323104.897 3075857.522 1.529
323104.621 3075857.847 1.528
323104.907 3075857.493 1.528
323104.744 3075857.677 1.528
323104.885 3075857.507 1.528
323104.744 3075857.668 1.528
323104.912 3075857.463 1.528
323104.737 3075857.665 1.528
323104.817 3075857.555 1.528
323104.770 3075857.604 1.528
323104.526 3075857.893 1.528
323104.707 3075857.677 1.528
323104.863 3075857.470 1.528
323104.053 3075858.374 1.527
323104.393 3075857.932 1.527
323104.799 3075857.440 1.527
323104.112 3075858.211 1.526
323104.142 3075858.086 1.525
323104.274 3075857.909 1.524
323104.716 3075857.374 1.524
323104.198 3075857.991 1.524
323104.679 3075857.306 1.521
323104.665 3075857.224 1.517
323104.626 3075857.122 1.504
323104.548 3075857.021 1.485
323104.415 3075856.933 1.467
323104.272 3075856.843 1.465
323104.152 3075856.751 1.466
323104.085 3075856.660 1.466
323104.061 3075856.532 1.464
323103.999 3075856.392 1.461
323103.917 3075856.264 1.456
323103.786 3075856.171 1.449
323103.635 3075856.124 1.443
323103.478 3075856.002 1.435
323103.384 3075855.895 1.431
323103.360 3075855.778 1.430
323103.288 3075855.637 1.429
323103.203 3075855.509 1.433
323103.089 3075855.408 1.439
323102.977 3075855.311 1.442
323102.852 3075855.206 1.441
323102.782 3075855.105 1.438
323102.706 3075854.998 1.430
323102.592 3075854.868 1.416
323102.463 3075854.775 1.408
323102.308 3075854.678 1.407
323102.163 3075854.568 1.407
323102.123 3075854.451 1.405
323102.087 3075854.333 1.402
323102.009 3075854.188 1.398
323101.881 3075854.056 1.401
323101.749 3075853.939 1.402
323101.637 3075853.820 1.396
323101.629 3075853.701 1.391
323101.545 3075853.579 1.380
323101.454 3075853.458 1.366
323101.297 3075853.366 1.351
323101.174 3075853.264 1.339
323101.003 3075853.140 1.316
323100.938 3075853.006 1.302
323100.912 3075852.912 1.294
323100.797 3075852.763 1.277
323100.668 3075852.650 1.264
323100.510 3075852.529 1.257
323100.366 3075852.366 1.258
323100.227 3075852.251 1.253
323100.167 3075852.108 1.247
323100.051 3075851.969 1.239
323099.971 3075851.852 1.232
323099.814 3075851.741 1.223
323099.658 3075851.609 1.217
323099.499 3075851.503 1.204
323099.437 3075851.376 1.191
323099.345 3075851.251 1.174
323099.225 3075851.116 1.157
323099.079 3075851.005 1.145
323098.936 3075850.900 1.137
323098.796 3075850.795 1.126
323098.733 3075850.688 1.117
323098.690 3075850.592 1.108
323098.568 3075850.468 1.091
323098.429 3075850.376 1.082
323098.292 3075850.276 1.083
323098.158 3075850.172 1.084
323098.087 3075850.049 1.080
323098.035 3075849.922 1.073
323097.920 3075849.783 1.062
323097.789 3075849.647 1.048
323097.622 3075849.557 1.038
323097.464 3075849.426 1.029
323097.343 3075849.327 1.020
323097.266 3075849.203 1.010
323097.137 3075849.075 0.998
323097.009 3075848.963 0.991
323096.836 3075848.857 0.989
323096.657 3075848.718 0.994
323096.508 3075848.597 0.987
323096.418 3075848.464 0.975
323096.304 3075848.336 0.958
323096.203 3075848.225 0.944
323096.058 3075848.125 0.931
323095.900 3075847.980 0.925
323095.772 3075847.848 0.923
323095.707 3075847.718 0.918
323095.598 3075847.572 0.911
323095.477 3075847.440 0.901
323095.328 3075847.337 0.895
323095.186 3075847.212 0.891
323095.064 3075847.098 0.882
323094.982 3075846.970 0.871
323094.901 3075846.837 0.861
323094.777 3075846.707 0.855
323094.630 3075846.582 0.852
323094.486 3075846.453 0.850
323094.322 3075846.313 0.838
323094.226 3075846.162 0.824
323094.143 3075846.026 0.814
323094.023 3075845.880 0.802
323093.859 3075845.759 0.793
323093.715 3075845.645 0.791
323093.549 3075845.525 0.789
323093.468 3075845.374 0.785
323093.380 3075845.256 0.781
323093.254 3075845.112 0.775
323093.087 3075844.998 0.772
323092.918 3075844.899 0.778
323092.744 3075844.779 0.780
323092.634 3075844.655 0.772
323092.578 3075844.561 0.767
323092.454 3075844.424 0.758
323092.317 3075844.294 0.746
323092.168 3075844.184 0.738
323092.006 3075844.033 0.732
323091.864 3075843.898 0.718
323091.800 3075843.752 0.705
323091.690 3075843.611 0.692
323091.586 3075843.483 0.680
323091.435 3075843.346 0.672
323091.288 3075843.197 0.674
323091.144 3075843.063 0.668
323091.059 3075842.924 0.656
323090.957 3075842.778 0.643
323090.846 3075842.637 0.632
323090.703 3075842.496 0.625
323090.570 3075842.359 0.624
323090.407 3075842.233 0.620
323090.305 3075842.076 0.614
323090.201 3075841.938 0.608
323090.099 3075841.787 0.599
323089.965 3075841.648 0.594
323089.854 3075841.517 0.601
323089.689 3075841.372 0.618
323089.604 3075841.212 0.627
323089.517 3075841.084 0.635
323089.421 3075840.921 0.645
323089.297 3075840.780 0.652
323089.172 3075840.673 0.658
323088.988 3075840.527 0.670
323088.824 3075840.401 0.669
323088.735 3075840.257 0.668
323088.644 3075840.119 0.670
323088.530 3075839.978 0.674
323088.386 3075839.842 0.680
323088.258 3075839.721 0.689
323088.078 3075839.603 0.696
323087.948 3075839.453 0.692
323087.868 3075839.326 0.691
323087.752 3075839.161 0.697
323087.626 3075839.020 0.705
323087.484 3075838.923 0.715
323087.329 3075838.802 0.726
323087.208 3075838.708 0.721
323087.112 3075838.580 0.704
323087.025 3075838.471 0.684
323086.878 3075838.340 0.655
323086.721 3075838.236 0.631
323086.565 3075838.118 0.600
323086.444 3075838.002 0.572
323086.383 3075837.875 0.550
323086.286 3075837.724 0.526
323086.157 3075837.584 0.505
323085.979 3075837.433 0.489
323085.822 3075837.288 0.481
323085.716 3075837.129 0.471
323085.650 3075837.022 0.462
323085.533 3075836.855 0.442
323085.381 3075836.708 0.419
323085.246 3075836.592 0.402
323085.087 3075836.426 0.377
323084.993 3075836.267 0.356
323084.899 3075836.148 0.342
323084.773 3075835.979 0.326
323084.613 3075835.821 0.320
323084.468 3075835.642 0.322
323084.306 3075835.491 0.319
323084.232 3075835.354 0.312
323084.131 3075835.173 0.301
323084.013 3075835.027 0.292
323083.881 3075834.909 0.291
323083.692 3075834.739 0.294
323083.568 3075834.578 0.289
323083.489 3075834.448 0.284
323083.369 3075834.280 0.278
323083.233 3075834.153 0.270
323083.114 3075834.039 0.265
323082.962 3075833.891 0.260
323082.834 3075833.747 0.246
323082.750 3075833.617 0.234
323082.626 3075833.471 0.220
323082.496 3075833.344 0.208
323082.349 3075833.217 0.202
323082.185 3075833.072 0.200
323082.051 3075832.946 0.189
323081.960 3075832.803 0.174
323081.847 3075832.648 0.162
323081.721 3075832.503 0.153
323081.586 3075832.373 0.150
323081.411 3075832.216 0.150
323081.265 3075832.068 0.139
323081.191 3075831.927 0.129
323081.075 3075831.748 0.122
323080.937 3075831.590 0.119
323080.795 3075831.456 0.122
323080.641 3075831.294 0.125
323080.510 3075831.147 0.114
323080.429 3075831.008 0.102
323080.308 3075830.860 0.090
323080.183 3075830.719 0.081
323080.037 3075830.566 0.078
323079.906 3075830.416 0.077
323079.766 3075830.300 0.066
323079.659 3075830.160 0.050
323079.578 3075830.032 0.040
323079.445 3075829.890 0.027
323079.292 3075829.747 0.018
323079.123 3075829.614 0.021
323078.926 3075829.485 0.014
323078.795 3075829.329 -0.003
323078.701 3075829.203 -0.011
323078.554 3075829.040 -0.021
323078.398 3075828.902 -0.028
323078.248 3075828.764 -0.028
323078.089 3075828.628 -0.034
323077.966 3075828.490 -0.047
323077.875 3075828.355 -0.054
323077.731 3075828.195 -0.060
323077.557 3075828.076 -0.057
323077.400 3075827.946 -0.045
323077.238 3075827.841 -0.041
323077.152 3075827.691 -0.044
323077.098 3075827.582 -0.045
323076.986 3075827.428 -0.045
323076.847 3075827.290 -0.044
323076.723 3075827.170 -0.045
323076.604 3075827.028 -0.044
323076.470 3075826.902 -0.054
323076.366 3075826.747 -0.068
323076.297 3075826.603 -0.077
323076.182 3075826.451 -0.085
323076.035 3075826.305 -0.091
323075.909 3075826.163 -0.089
323075.740 3075826.010 -0.090
323075.620 3075825.845 -0.101
323075.531 3075825.712 -0.106
323075.416 3075825.539 -0.116
323075.271 3075825.391 -0.130
323075.153 3075825.261 -0.137
323074.972 3075825.106 -0.145
323074.847 3075824.948 -0.157
323074.758 3075824.827 -0.165
323074.630 3075824.657 -0.175
323074.473 3075824.514 -0.185
323074.331 3075824.404 -0.185
323074.156 3075824.263 -0.177
323074.038 3075824.125 -0.178
323073.964 3075824.001 -0.179
323073.839 3075823.844 -0.180
323073.702 3075823.711 -0.187
323073.548 3075823.617 -0.194
323073.384 3075823.490 -0.198
323073.257 3075823.374 -0.206
323073.195 3075823.215 -0.214
323073.104 3075823.074 -0.217
323072.993 3075822.936 -0.217
323072.858 3075822.803 -0.223
323072.717 3075822.708 -0.232
323072.567 3075822.570 -0.247
323072.463 3075822.431 -0.261
323072.415 3075822.310 -0.271
323072.328 3075822.166 -0.286
323072.208 3075822.025 -0.304
323072.064 3075821.907 -0.313
323071.889 3075821.764 -0.312
323071.774 3075821.638 -0.313
323071.730 3075821.513 -0.317
323071.642 3075821.374 -0.326
323071.537 3075821.272 -0.333
323071.395 3075821.181 -0.334
323071.263 3075821.089 -0.331
323071.155 3075821.011 -0.328
323071.079 3075820.902 -0.328
323071.032 3075820.790 -0.332
323070.950 3075820.670 -0.340
323070.849 3075820.579 -0.350
323070.699 3075820.512 -0.360
323070.569 3075820.408 -0.368
323070.435 3075820.327 -0.377
323070.364 3075820.218 -0.384
323070.338 3075820.128 -0.388
323070.279 3075820.009 -0.393
323070.190 3075819.910 -0.397
323070.047 3075819.824 -0.397
323069.932 3075819.730 -0.397
323069.845 3075819.609 -0.401
323069.808 3075819.497 -0.406
323069.837 3075819.413 -0.407
323069.825 3075819.286 -0.412
323069.760 3075819.198 -0.417
323069.664 3075819.216 -0.419
323069.843 3075818.924 -0.421
323069.839 3075818.924 -0.421
