322869.993 3076083.127 1.585
322869.990 3076083.130 1.585
322869.988 3076083.131 1.585
322869.989 3076083.129 1.585
322869.988 3076083.130 1.585
322869.985 3076083.129 1.585
322870.126 3076082.895 1.586
322870.090 3076082.742 1.588
322870.050 3076082.630 1.591
322870.023 3076082.576 1.593
322870.025 3076082.539 1.594
322870.040 3076082.509 1.594
322870.025 3076082.486 1.594
322869.961 3076082.448 1.595
322869.892 3076082.420 1.594
322869.809 3076082.401 1.591
322869.691 3076082.391 1.585
322869.582 3076082.411 1.581
322869.499 3076082.384 1.579
322869.415 3076082.313 1.581
322869.376 3076082.218 1.587
322869.333 3076082.126 1.597
322869.232 3076082.073 1.612
322869.104 3076082.016 1.633
322869.003 3076081.981 1.652
322868.918 3076081.889 1.675
322868.854 3076081.790 1.694
322868.833 3076081.713 1.704
322868.815 3076081.645 1.712
322868.713 3076081.584 1.730
322868.561 3076081.511 1.756
322868.421 3076081.489 1.778
322868.315 3076081.384 1.800
322868.264 3076081.272 1.812
322868.264 3076081.189 1.816
322868.268 3076081.121 1.818
322868.220 3076081.052 1.822
322868.100 3076080.976 1.826
322867.953 3076080.883 1.825
322867.813 3076080.781 1.825
322867.738 3076080.673 1.831
322867.678 3076080.565 1.836
322867.676 3076080.456 1.839
322867.604 3076080.365 1.840
322867.485 3076080.306 1.838
322867.350 3076080.275 1.829
322867.236 3076080.202 1.819
322867.147 3076080.063 1.816
322867.099 3076079.984 1.816
322867.116 3076079.959 1.816
322867.083 3076079.951 1.816
322867.078 3076079.911 1.816
322867.078 3076079.883 1.816
322867.076 3076079.855 1.816
322867.076 3076079.813 1.817
322867.091 3076079.743 1.817
322866.982 3076079.621 1.817
322866.826 3076079.463 1.814
322866.672 3076079.351 1.810
322866.550 3076079.253 1.811
322866.467 3076079.155 1.813
322866.513 3076079.057 1.813
322866.496 3076078.954 1.814
322866.421 3076078.884 1.813
322866.294 3076078.863 1.809
322866.156 3076078.813 1.800
322866.026 3076078.717 1.786
322865.948 3076078.589 1.779
322865.888 3076078.468 1.777
322865.808 3076078.349 1.776
322865.693 3076078.266 1.774
322865.550 3076078.175 1.771
322865.405 3076078.094 1.765
322865.307 3076077.939 1.764
322865.266 3076077.801 1.766
322865.250 3076077.679 1.767
322865.173 3076077.555 1.765
322865.049 3076077.454 1.759
322864.948 3076077.352 1.750
322864.852 3076077.247 1.747
322864.796 3076077.123 1.753
322864.738 3076076.991 1.759
322864.746 3076076.892 1.761
322864.722 3076076.801 1.761
322864.653 3076076.736 1.758
322864.533 3076076.676 1.748
322864.425 3076076.622 1.733
322864.315 3076076.517 1.717
322864.249 3076076.403 1.711
322864.229 3076076.266 1.710
322864.191 3076076.154 1.707
322864.105 3076076.061 1.701
322863.988 3076076.005 1.692
322863.844 3076075.950 1.678
322863.709 3076075.864 1.667
322863.611 3076075.750 1.660
322863.509 3076075.597 1.658
322863.462 3076075.490 1.659
322863.330 3076075.369 1.659
322863.183 3076075.288 1.650
322863.017 3076075.204 1.632
322862.851 3076075.118 1.618
322862.749 3076075.009 1.611
322862.712 3076074.898 1.607
322862.706 3076074.807 1.604
322862.580 3076074.649 1.593
322862.402 3076074.529 1.574
322862.184 3076074.401 1.545
322861.972 3076074.267 1.538
322861.870 3076074.117 1.537
322861.789 3076073.971 1.536
322861.732 3076073.850 1.537
322861.593 3076073.699 1.536
322861.427 3076073.565 1.523
322861.271 3076073.462 1.516
322861.135 3076073.336 1.515
322861.042 3076073.182 1.517
322861.036 3076073.084 1.517
322860.948 3076072.946 1.516
322860.812 3076072.824 1.511
322860.656 3076072.713 1.509
322860.507 3076072.654 1.506
322860.406 3076072.551 1.502
322860.373 3076072.446 1.501
322860.375 3076072.365 1.499
322860.443 3076072.248 1.499
322860.418 3076072.274 1.499
322860.455 3076072.216 1.499
322860.415 3076072.252 1.499
322860.384 3076072.264 1.498
322860.433 3076072.177 1.498
322860.408 3076072.206 1.498
322860.404 3076072.196 1.497
322860.333 3076072.115 1.495
322860.224 3076071.971 1.487
322860.098 3076071.843 1.477
322860.003 3076071.717 1.471
322859.961 3076071.589 1.465
322859.917 3076071.463 1.459
322859.887 3076071.359 1.454
322859.763 3076071.204 1.440
322859.603 3076071.079 1.419
322859.455 3076070.975 1.406
322859.334 3076070.878 1.400
322859.247 3076070.778 1.394
322859.148 3076070.642 1.385
322859.065 3076070.498 1.376
322858.939 3076070.352 1.368
322858.774 3076070.236 1.353
322858.604 3076070.134 1.341
322858.468 3076070.019 1.336
322858.379 3076069.903 1.330
322858.315 3076069.770 1.322
322858.249 3076069.651 1.314
322858.135 3076069.526 1.304
322858.013 3076069.437 1.293
322857.896 3076069.344 1.281
322857.749 3076069.235 1.266
322857.632 3076069.093 1.251
322857.553 3076068.961 1.240
322857.481 3076068.801 1.233
322857.342 3076068.634 1.231
322857.182 3076068.525 1.219
322857.036 3076068.420 1.206
322856.902 3076068.309 1.198
322856.803 3076068.178 1.190
322856.746 3076068.041 1.182
322856.691 3076067.924 1.173
322856.618 3076067.789 1.163
322856.482 3076067.671 1.147
322856.310 3076067.567 1.129
322856.168 3076067.490 1.119
322856.030 3076067.368 1.111
322855.958 3076067.247 1.103
322855.870 3076067.116 1.093
322855.796 3076066.995 1.085
322855.695 3076066.873 1.080
322855.571 3076066.793 1.075
322855.417 3076066.713 1.064
322855.256 3076066.620 1.051
322855.112 3076066.508 1.038
322855.044 3076066.400 1.028
322854.964 3076066.263 1.019
322854.879 3076066.154 1.014
322854.752 3076066.031 1.010
322854.623 3076065.937 1.001
322854.479 3076065.801 0.982
322854.321 3076065.649 0.971
322854.204 3076065.518 0.967
322854.151 3076065.394 0.964
322854.076 3076065.272 0.961
322853.942 3076065.114 0.958
322853.773 3076065.000 0.946
322853.609 3076064.875 0.928
322853.468 3076064.781 0.922
322853.328 3076064.652 0.918
322853.203 3076064.483 0.909
322853.139 3076064.371 0.906
322852.995 3076064.224 0.908
322852.816 3076064.099 0.898
322852.653 3076063.973 0.884
322852.478 3076063.839 0.882
322852.359 3076063.693 0.875
322852.234 3076063.553 0.863
322852.107 3076063.387 0.862
322851.930 3076063.250 0.859
322851.751 3076063.108 0.842
322851.534 3076062.985 0.836
322851.373 3076062.835 0.829
322851.259 3076062.684 0.821
322851.128 3076062.544 0.820
322850.953 3076062.413 0.820
322850.786 3076062.277 0.805
322850.622 3076062.144 0.794
322850.467 3076062.002 0.788
322850.364 3076061.855 0.777
322850.275 3076061.713 0.765
322850.160 3076061.552 0.757
322850.024 3076061.412 0.749
322849.902 3076061.267 0.735
322849.759 3076061.130 0.728
322849.622 3076060.984 0.726
322849.529 3076060.825 0.718
322849.435 3076060.682 0.710
322849.331 3076060.505 0.707
322849.188 3076060.356 0.699
322849.072 3076060.204 0.686
322848.934 3076060.072 0.680
322848.788 3076059.914 0.674
322848.664 3076059.737 0.663
322848.622 3076059.614 0.660
322848.510 3076059.456 0.658
322848.350 3076059.303 0.645
322848.167 3076059.154 0.618
322847.991 3076058.975 0.608
322847.871 3076058.805 0.596
322847.758 3076058.625 0.580
322847.642 3076058.452 0.574
322847.500 3076058.308 0.569
322847.337 3076058.149 0.551
322847.170 3076058.030 0.545
322847.033 3076057.881 0.541
322846.896 3076057.706 0.530
322846.841 3076057.559 0.526
322846.721 3076057.408 0.523
322846.557 3076057.278 0.513
322846.394 3076057.168 0.501
322846.236 3076057.007 0.494
322846.120 3076056.816 0.486
322846.074 3076056.652 0.483
322845.986 3076056.471 0.487
322845.815 3076056.302 0.487
322845.656 3076056.137 0.476
322845.511 3076055.969 0.474
322845.399 3076055.787 0.468
322845.322 3076055.603 0.461
322845.233 3076055.439 0.463
322845.076 3076055.262 0.463
322844.933 3076055.070 0.449
322844.771 3076054.876 0.449
322844.613 3076054.655 0.447
322844.549 3076054.485 0.444
322844.404 3076054.296 0.453
322844.232 3076054.135 0.454
322844.058 3076053.965 0.444
322843.900 3076053.824 0.447
322843.769 3076053.650 0.444
322843.657 3076053.464 0.435
322843.586 3076053.318 0.433
322843.450 3076053.159 0.433
322843.281 3076053.016 0.420
322843.118 3076052.911 0.411
322842.973 3076052.767 0.408
322842.856 3076052.612 0.401
322842.762 3076052.469 0.393
322842.635 3076052.307 0.392
322842.478 3076052.171 0.390
322842.317 3076052.014 0.375
322842.159 3076051.888 0.366
322842.022 3076051.718 0.362
322841.901 3076051.532 0.354
322841.854 3076051.411 0.352
322841.715 3076051.230 0.354
322841.538 3076051.087 0.342
322841.397 3076050.946 0.324
322841.224 3076050.778 0.314
322841.085 3076050.588 0.307
322841.011 3076050.457 0.301
322840.868 3076050.276 0.301
322840.682 3076050.139 0.292
322840.506 3076049.987 0.268
322840.323 3076049.836 0.259
322840.176 3076049.670 0.253
322840.047 3076049.517 0.244
322839.911 3076049.371 0.242
322839.751 3076049.242 0.243
322839.572 3076049.128 0.228
322839.382 3076049.018 0.208
322839.209 3076048.872 0.199
322839.085 3076048.722 0.189
322838.990 3076048.590 0.180
322838.838 3076048.427 0.174
322838.677 3076048.311 0.166
322838.522 3076048.190 0.150
322838.348 3076048.080 0.143
322838.198 3076047.945 0.140
322838.076 3076047.791 0.129
322837.994 3076047.652 0.119
322837.868 3076047.496 0.112
322837.740 3076047.394 0.102
322837.594 3076047.275 0.085
322837.437 3076047.158 0.073
322837.287 3076047.033 0.066
322837.177 3076046.877 0.059
322837.092 3076046.761 0.055
322836.963 3076046.602 0.050
322836.799 3076046.473 0.039
322836.660 3076046.359 0.027
322836.494 3076046.232 0.021
322836.358 3076046.063 0.012
322836.240 3076045.898 0.003
322836.158 3076045.749 0.002
322836.020 3076045.598 0.003
322835.862 3076045.454 -0.007
322835.708 3076045.334 -0.015
322835.562 3076045.190 -0.020
322835.448 3076045.037 -0.029
322835.373 3076044.877 -0.036
322835.267 3076044.716 -0.038
322835.130 3076044.596 -0.042
322834.981 3076044.465 -0.053
322834.813 3076044.321 -0.058
322834.681 3076044.172 -0.063
322834.559 3076044.003 -0.070
322834.514 3076043.865 -0.070
322834.371 3076043.726 -0.065
322834.187 3076043.620 -0.073
322833.997 3076043.508 -0.095
322833.827 3076043.378 -0.111
322833.701 3076043.246 -0.121
322833.607 3076043.119 -0.126
322833.519 3076043.004 -0.126
322833.417 3076042.902 -0.124
322833.258 3076042.771 -0.129
322833.095 3076042.665 -0.136
322832.919 3076042.515 -0.142
322832.797 3076042.364 -0.152
322832.731 3076042.222 -0.159
322832.642 3076042.072 -0.161
322832.503 3076041.935 -0.162
322832.336 3076041.811 -0.179
322832.172 3076041.692 -0.198
322832.013 3076041.548 -0.211
322831.890 3076041.402 -0.220
322831.826 3076041.276 -0.225
322831.679 3076041.123 -0.223
322831.498 3076041.009 -0.223
322831.316 3076040.881 -0.235
322831.134 3076040.762 -0.243
322830.987 3076040.621 -0.250
322830.877 3076040.476 -0.257
322830.827 3076040.362 -0.259
322830.709 3076040.226 -0.262
322830.579 3076040.142 -0.269
322830.421 3076040.032 -0.282
322830.251 3076039.932 -0.290
322830.150 3076039.793 -0.295
322830.093 3076039.655 -0.301
322830.068 3076039.527 -0.307
322829.972 3076039.369 -0.319
322829.845 3076039.245 -0.333
322829.717 3076039.175 -0.343
322829.593 3076039.115 -0.353
322829.513 3076038.982 -0.364
322829.514 3076038.848 -0.370
322829.470 3076038.691 -0.380
322829.372 3076038.544 -0.392
322829.264 3076038.453 -0.401
322829.142 3076038.432 -0.409
322829.018 3076038.386 -0.415
322828.932 3076038.304 -0.417
322828.903 3076038.234 -0.418
322828.891 3076038.179 -0.418
322828.897 3076038.160 -0.418
322828.898 3076038.156 -0.418
322828.898 3076038.154 -0.419
322828.895 3076038.155 -0.419
322828.893 3076038.152 -0.419
322828.889 3076038.146 -0.419
322828.882 3076038.147 -0.419
