323001.704 3075954.745 2.148
323001.693 3075954.748 2.149
323001.691 3075954.745 2.149
323001.692 3075954.723 2.150
323001.641 3075954.656 2.154
323001.714 3075954.444 2.151
323001.591 3075954.573 2.150
323001.674 3075954.470 2.150
323001.675 3075954.450 2.149
323001.667 3075954.430 2.146
323001.622 3075954.441 2.142
323001.511 3075954.456 2.127
323001.340 3075954.443 2.086
323001.144 3075954.566 2.063
323001.202 3075954.471 2.058
323001.202 3075954.465 2.056
323001.097 3075954.538 2.046
323001.254 3075954.307 2.039
323001.108 3075954.475 2.038
323001.201 3075954.138 2.015
323001.103 3075954.015 2.001
323001.013 3075953.917 1.989
323000.893 3075953.861 1.975
323000.765 3075953.816 1.953
323000.664 3075953.710 1.927
323000.622 3075953.603 1.912
323000.660 3075953.511 1.907
323000.632 3075953.396 1.893
323000.563 3075953.309 1.876
323000.449 3075953.259 1.856
323000.318 3075953.191 1.835
323000.189 3075953.093 1.816
323000.128 3075952.981 1.802
323000.132 3075952.871 1.793
323000.037 3075952.732 1.766
322999.909 3075952.628 1.735
322999.756 3075952.596 1.709
322999.598 3075952.476 1.667
322999.525 3075952.379 1.645
322999.538 3075952.268 1.634
322999.479 3075952.168 1.614
322999.368 3075952.068 1.587
322999.227 3075952.000 1.569
322999.083 3075951.915 1.559
322998.980 3075951.853 1.553
322998.940 3075951.755 1.548
322998.899 3075951.659 1.541
322998.799 3075951.552 1.528
322998.683 3075951.479 1.517
322998.543 3075951.424 1.512
322998.399 3075951.320 1.509
322998.290 3075951.236 1.506
322998.257 3075951.131 1.503
322998.220 3075951.022 1.497
322998.144 3075950.917 1.484
322998.029 3075950.840 1.467
322997.898 3075950.787 1.452
322997.761 3075950.691 1.438
322997.683 3075950.610 1.432
322997.636 3075950.487 1.427
322997.551 3075950.373 1.419
322997.442 3075950.257 1.408
322997.304 3075950.182 1.398
322997.174 3075950.108 1.389
322997.034 3075950.014 1.380
322996.936 3075949.919 1.374
322996.893 3075949.805 1.371
322996.824 3075949.682 1.369
322996.720 3075949.559 1.370
322996.599 3075949.467 1.372
322996.466 3075949.382 1.372
322996.337 3075949.280 1.369
322996.236 3075949.169 1.365
322996.206 3075949.059 1.363
322996.138 3075948.935 1.359
322996.083 3075948.832 1.357
322995.971 3075948.746 1.354
322995.841 3075948.678 1.355
322995.720 3075948.551 1.357
322995.632 3075948.450 1.359
322995.587 3075948.319 1.360
322995.519 3075948.217 1.359
322995.443 3075948.114 1.356
322995.318 3075948.032 1.352
322995.177 3075947.982 1.349
322995.058 3075947.894 1.347
322994.968 3075947.830 1.346
322994.898 3075947.715 1.345
322994.862 3075947.621 1.345
322994.761 3075947.505 1.344
322994.661 3075947.411 1.345
322994.528 3075947.344 1.347
322994.417 3075947.268 1.346
322994.275 3075947.183 1.341
322994.164 3075947.082 1.335
322994.126 3075946.982 1.331
322994.051 3075946.871 1.327
322993.971 3075946.771 1.326
322993.829 3075946.690 1.327
322993.709 3075946.605 1.328
322993.588 3075946.534 1.325
322993.517 3075946.446 1.321
322993.473 3075946.338 1.317
322993.451 3075946.236 1.313
322993.349 3075946.098 1.309
322993.212 3075945.945 1.312
322993.052 3075945.825 1.315
322992.899 3075945.718 1.312
322992.792 3075945.623 1.303
322992.716 3075945.496 1.293
322992.717 3075945.386 1.288
322992.601 3075945.214 1.273
322992.459 3075945.081 1.260
322992.289 3075944.986 1.252
322992.109 3075944.822 1.245
322991.974 3075944.682 1.236
322991.929 3075944.563 1.231
322991.799 3075944.395 1.225
322991.659 3075944.273 1.220
322991.503 3075944.178 1.218
322991.336 3075944.023 1.221
322991.183 3075943.890 1.213
322991.114 3075943.759 1.204
322990.993 3075943.601 1.192
322990.858 3075943.468 1.179
322990.684 3075943.369 1.170
322990.512 3075943.228 1.167
322990.371 3075943.115 1.156
322990.279 3075942.983 1.142
322990.165 3075942.835 1.127
322990.003 3075942.700 1.110
322989.818 3075942.587 1.100
322989.619 3075942.441 1.107
322989.439 3075942.306 1.095
322989.346 3075942.171 1.081
322989.223 3075942.023 1.070
322989.084 3075941.875 1.057
322988.904 3075941.738 1.047
322988.737 3075941.551 1.052
322988.607 3075941.402 1.048
322988.502 3075941.265 1.037
322988.395 3075941.097 1.022
322988.237 3075940.976 1.005
322988.077 3075940.890 0.999
322987.877 3075940.750 0.991
322987.767 3075940.623 0.979
322987.707 3075940.511 0.970
322987.556 3075940.368 0.955
322987.412 3075940.255 0.949
322987.277 3075940.131 0.950
322987.089 3075939.982 0.950
322986.967 3075939.833 0.939
322986.897 3075939.707 0.932
322986.767 3075939.515 0.921
322986.618 3075939.364 0.912
322986.456 3075939.239 0.910
322986.262 3075939.090 0.902
322986.135 3075938.929 0.885
322986.042 3075938.805 0.875
322985.878 3075938.621 0.858
322985.707 3075938.460 0.849
322985.570 3075938.312 0.851
322985.396 3075938.166 0.846
322985.265 3075938.012 0.833
322985.176 3075937.894 0.828
322985.051 3075937.736 0.821
322984.899 3075937.602 0.818
322984.756 3075937.465 0.824
322984.581 3075937.337 0.824
322984.446 3075937.209 0.816
322984.333 3075937.080 0.812
322984.200 3075936.916 0.808
322984.053 3075936.787 0.803
322983.914 3075936.656 0.807
322983.729 3075936.511 0.814
322983.581 3075936.341 0.808
322983.480 3075936.190 0.806
322983.351 3075936.013 0.798
322983.198 3075935.875 0.781
322983.062 3075935.766 0.774
322982.883 3075935.608 0.774
322982.743 3075935.466 0.766
322982.653 3075935.355 0.758
322982.492 3075935.190 0.749
322982.330 3075935.062 0.741
322982.169 3075934.962 0.738
322981.973 3075934.807 0.732
322981.836 3075934.674 0.716
322981.754 3075934.572 0.706
322981.602 3075934.395 0.693
322981.451 3075934.278 0.682
322981.287 3075934.178 0.674
322981.082 3075934.033 0.673
322980.959 3075933.910 0.666
322980.842 3075933.784 0.657
322980.694 3075933.633 0.652
322980.540 3075933.509 0.651
322980.389 3075933.415 0.650
322980.191 3075933.270 0.647
322980.034 3075933.135 0.628
322979.955 3075933.012 0.613
322979.807 3075932.831 0.588
322979.648 3075932.704 0.568
322979.466 3075932.578 0.557
322979.242 3075932.408 0.560
322979.079 3075932.256 0.564
322978.891 3075932.093 0.584
322978.747 3075931.936 0.594
322978.567 3075931.851 0.598
322978.389 3075931.761 0.606
322978.214 3075931.651 0.610
322978.091 3075931.509 0.614
322977.972 3075931.356 0.625
322977.813 3075931.221 0.634
322977.632 3075931.101 0.639
322977.467 3075930.977 0.653
322977.287 3075930.856 0.658
322977.151 3075930.703 0.652
322977.092 3075930.563 0.652
322976.942 3075930.384 0.653
322976.771 3075930.233 0.635
322976.613 3075930.133 0.620
322976.427 3075929.968 0.606
322976.300 3075929.829 0.588
322976.189 3075929.670 0.572
322976.030 3075929.497 0.556
322975.827 3075929.357 0.534
322975.635 3075929.214 0.524
322975.427 3075929.060 0.517
322975.310 3075928.872 0.501
322975.191 3075928.710 0.489
322975.048 3075928.559 0.471
322974.872 3075928.458 0.455
322974.691 3075928.313 0.449
322974.541 3075928.167 0.434
322974.467 3075928.030 0.421
322974.370 3075927.887 0.410
322974.229 3075927.745 0.393
322974.042 3075927.607 0.375
322973.857 3075927.439 0.379
322973.687 3075927.261 0.368
322973.577 3075927.099 0.352
322973.473 3075926.938 0.333
322973.315 3075926.801 0.308
322973.182 3075926.674 0.295
322973.004 3075926.532 0.294
322972.877 3075926.361 0.289
322972.787 3075926.236 0.284
322972.646 3075926.072 0.275
322972.483 3075925.942 0.267
322972.313 3075925.809 0.265
322972.117 3075925.666 0.252
322971.991 3075925.506 0.232
322971.892 3075925.357 0.222
322971.730 3075925.186 0.206
322971.540 3075925.057 0.194
322971.350 3075924.903 0.207
322971.162 3075924.767 0.201
322971.032 3075924.615 0.181
322970.911 3075924.487 0.169
322970.736 3075924.340 0.148
322970.548 3075924.212 0.129
322970.366 3075924.068 0.129
322970.196 3075923.925 0.118
322970.091 3075923.780 0.104
322969.978 3075923.651 0.097
322969.831 3075923.529 0.087
322969.643 3075923.406 0.080
322969.460 3075923.251 0.087
322969.292 3075923.120 0.079
322969.163 3075922.977 0.062
322969.027 3075922.833 0.050
322968.862 3075922.700 0.033
322968.693 3075922.586 0.020
322968.482 3075922.426 0.022
322968.322 3075922.292 0.009
322968.236 3075922.169 -0.003
322968.081 3075922.003 -0.011
322967.936 3075921.879 -0.009
322967.797 3075921.788 -0.005
322967.647 3075921.651 -0.005
322967.568 3075921.507 -0.010
322967.536 3075921.373 -0.015
322967.477 3075921.214 -0.021
322967.406 3075921.064 -0.028
322967.304 3075920.919 -0.035
322967.200 3075920.785 -0.045
322967.120 3075920.647 -0.051
322967.091 3075920.525 -0.053
322967.124 3075920.432 -0.053
322967.124 3075920.312 -0.054
322967.083 3075920.178 -0.053
322966.996 3075920.096 -0.054
322966.867 3075920.005 -0.063
322966.778 3075919.913 -0.067
322966.722 3075919.824 -0.069
322966.855 3075919.634 -0.069
322966.855 3075919.627 -0.069
322966.855 3075919.623 -0.069
322966.850 3075919.621 -0.070
322966.850 3075919.617 -0.070
322966.843 3075919.617 -0.070
322966.792 3075919.667 -0.070
322966.856 3075919.582 -0.070
322966.851 3075919.578 -0.070
322966.833 3075919.589 -0.070
322966.839 3075919.572 -0.070
322966.830 3075919.581 -0.070
322966.834 3075919.561 -0.070
322966.832 3075919.563 -0.070
322966.830 3075919.549 -0.070
322966.814 3075919.500 -0.071
322966.769 3075919.414 -0.073
322966.708 3075919.336 -0.074
322966.657 3075919.226 -0.075
322966.632 3075919.116 -0.075
322966.743 3075918.941 -0.074
322966.667 3075919.015 -0.074
322966.764 3075918.825 -0.073
322966.758 3075918.710 -0.072
322966.708 3075918.596 -0.071
322966.626 3075918.499 -0.074
322966.569 3075918.369 -0.079
322966.534 3075918.244 -0.083
322966.569 3075918.136 -0.085
322966.593 3075918.024 -0.086
322966.580 3075917.893 -0.090
322966.524 3075917.785 -0.094
322966.418 3075917.700 -0.101
322966.330 3075917.604 -0.108
322966.265 3075917.514 -0.113
322966.248 3075917.401 -0.117
322966.284 3075917.311 -0.118
322966.246 3075917.176 -0.124
322966.175 3075917.038 -0.131
322966.089 3075916.922 -0.136
322965.990 3075916.817 -0.142
322965.903 3075916.678 -0.152
322965.864 3075916.557 -0.158
322965.903 3075916.463 -0.159
322965.895 3075916.332 -0.164
322965.850 3075916.194 -0.169
322965.756 3075916.099 -0.170
322965.647 3075915.980 -0.169
322965.566 3075915.867 -0.170
322965.542 3075915.749 -0.172
322965.567 3075915.654 -0.174
322965.537 3075915.525 -0.179
322965.473 3075915.408 -0.187
322965.381 3075915.317 -0.195
322965.262 3075915.198 -0.208
322965.161 3075915.090 -0.219
322965.114 3075914.956 -0.227
322965.115 3075914.842 -0.232
322965.057 3075914.683 -0.242
322964.968 3075914.558 -0.250
322964.861 3075914.462 -0.255
322964.733 3075914.324 -0.263
322964.637 3075914.188 -0.270
322964.631 3075914.080 -0.274
322964.592 3075913.932 -0.282
322964.519 3075913.807 -0.290
322964.406 3075913.737 -0.297
322964.259 3075913.629 -0.308
322964.171 3075913.555 -0.315
322964.141 3075913.460 -0.319
322964.160 3075913.394 -0.321
322964.101 3075913.270 -0.328
322964.026 3075913.173 -0.332
322963.905 3075913.096 -0.330
322963.803 3075913.011 -0.326
322963.711 3075912.932 -0.325
322963.643 3075912.854 -0.327
322963.619 3075912.771 -0.329
322963.643 3075912.690 -0.331
322963.583 3075912.607 -0.334
322963.514 3075912.542 -0.338
322963.429 3075912.492 -0.339
322963.334 3075912.451 -0.340
322963.248 3075912.415 -0.342
322963.147 3075912.361 -0.349
322963.059 3075912.289 -0.358
322963.016 3075912.206 -0.367
322962.981 3075912.131 -0.376
322962.923 3075912.057 -0.386
322962.817 3075912.027 -0.394
322962.679 3075912.013 -0.400
322962.602 3075912.020 -0.402
322962.599 3075912.015 -0.402
322962.597 3075912.011 -0.402
