323159.828 3075819.743 2.270
323159.832 3075819.722 2.270
323159.838 3075819.689 2.269
323159.823 3075819.658 2.268
323159.782 3075819.649 2.266
323159.716 3075819.652 2.264
323159.648 3075819.632 2.261
323159.602 3075819.604 2.259
323159.581 3075819.558 2.258
323159.586 3075819.512 2.258
323159.575 3075819.482 2.257
323159.571 3075819.456 2.257
323159.541 3075819.430 2.256
323159.482 3075819.401 2.256
323159.439 3075819.380 2.255
323159.444 3075819.321 2.255
323159.468 3075819.279 2.255
323159.411 3075819.332 2.255
323159.385 3075819.347 2.255
323159.474 3075819.239 2.255
323159.448 3075819.201 2.255
323159.406 3075819.211 2.254
323159.401 3075819.206 2.254
323159.397 3075819.191 2.254
323159.379 3075819.209 2.254
323159.402 3075819.178 2.254
323159.377 3075819.190 2.254
323159.353 3075819.208 2.254
323159.392 3075819.152 2.253
323159.342 3075819.195 2.253
323159.348 3075819.133 2.252
323159.293 3075819.104 2.250
323159.225 3075819.071 2.247
323159.155 3075819.027 2.242
323159.107 3075818.988 2.239
323159.092 3075818.951 2.238
323159.067 3075818.908 2.237
323159.055 3075818.873 2.236
323159.015 3075818.862 2.236
323158.964 3075818.871 2.235
323158.923 3075818.858 2.234
323158.910 3075818.836 2.232
323158.896 3075818.802 2.230
323158.858 3075818.766 2.225
323158.817 3075818.755 2.221
323158.766 3075818.745 2.216
323158.733 3075818.718 2.212
323158.738 3075818.686 2.210
323158.725 3075818.634 2.206
323158.711 3075818.597 2.203
323158.650 3075818.665 2.202
323158.670 3075818.630 2.202
323158.681 3075818.596 2.201
323158.584 3075818.680 2.199
323158.561 3075818.671 2.197
323158.530 3075818.659 2.194
323158.508 3075818.640 2.191
323158.626 3075818.497 2.191
323158.601 3075818.526 2.191
323158.635 3075818.482 2.191
323158.556 3075818.568 2.190
323158.514 3075818.613 2.190
323158.633 3075818.471 2.190
323158.652 3075818.447 2.190
323158.666 3075818.424 2.189
323158.662 3075818.390 2.187
323158.627 3075818.374 2.183
323158.588 3075818.372 2.179
323158.533 3075818.364 2.173
323158.493 3075818.343 2.166
323158.465 3075818.320 2.159
323158.459 3075818.282 2.152
323158.436 3075818.243 2.142
323158.406 3075818.207 2.129
323158.380 3075818.162 2.114
323158.340 3075818.141 2.101
323158.274 3075818.130 2.085
323158.226 3075818.089 2.071
323158.188 3075818.054 2.060
323158.195 3075818.011 2.055
323158.161 3075817.948 2.040
323158.098 3075817.897 2.021
323158.012 3075817.869 2.001
323157.937 3075817.803 1.977
323157.906 3075817.749 1.963
323157.901 3075817.683 1.952
323157.885 3075817.613 1.938
323157.821 3075817.563 1.918
323157.745 3075817.536 1.898
323157.657 3075817.487 1.871
323157.591 3075817.440 1.850
323157.567 3075817.372 1.837
323157.514 3075817.299 1.823
323157.458 3075817.243 1.812
323157.380 3075817.213 1.802
323157.330 3075817.167 1.794
323157.269 3075817.130 1.786
323157.237 3075817.079 1.779
323157.233 3075817.023 1.775
323157.196 3075816.967 1.767
323157.146 3075816.899 1.757
323157.080 3075816.859 1.747
323156.979 3075816.853 1.735
323156.869 3075816.806 1.720
323156.778 3075816.753 1.709
323156.755 3075816.710 1.704
323156.766 3075816.656 1.701
323156.760 3075816.590 1.696
323156.739 3075816.519 1.690
323156.679 3075816.466 1.680
323156.593 3075816.448 1.671
323156.502 3075816.389 1.660
323156.441 3075816.333 1.654
323156.436 3075816.274 1.651
323156.450 3075816.207 1.649
323156.439 3075816.136 1.646
323156.446 3075816.066 1.644
323156.407 3075815.993 1.638
323156.355 3075815.967 1.633
323156.302 3075815.906 1.624
323156.216 3075815.829 1.611
323156.180 3075815.748 1.603
323156.157 3075815.676 1.598
323156.095 3075815.592 1.592
323156.029 3075815.549 1.588
323155.957 3075815.497 1.582
323155.861 3075815.432 1.573
323155.791 3075815.363 1.562
323155.791 3075815.299 1.557
323155.738 3075815.215 1.545
323155.685 3075815.150 1.535
323155.604 3075815.104 1.524
323155.514 3075815.024 1.514
323155.406 3075814.956 1.509
323155.356 3075814.883 1.509
323155.294 3075814.807 1.510
323155.250 3075814.713 1.511
323155.178 3075814.631 1.512
323155.116 3075814.597 1.513
323155.033 3075814.525 1.513
323154.933 3075814.449 1.510
323154.915 3075814.399 1.508
323154.874 3075814.304 1.503
323154.832 3075814.228 1.498
323154.754 3075814.189 1.492
323154.658 3075814.148 1.484
323154.548 3075814.099 1.476
323154.490 3075814.010 1.472
323154.471 3075813.923 1.469
323154.407 3075813.819 1.463
323154.325 3075813.727 1.457
323154.221 3075813.668 1.450
323154.118 3075813.618 1.443
323154.007 3075813.544 1.435
323153.934 3075813.476 1.431
323153.907 3075813.404 1.428
323153.845 3075813.323 1.425
323153.750 3075813.242 1.422
323153.653 3075813.191 1.419
323153.533 3075813.128 1.415
323153.439 3075813.062 1.410
323153.428 3075812.985 1.408
323153.387 3075812.881 1.403
323153.325 3075812.778 1.396
323153.245 3075812.744 1.392
323153.172 3075812.700 1.389
323153.119 3075812.682 1.387
323153.096 3075812.662 1.386
323153.096 3075812.619 1.385
323153.136 3075812.570 1.385
323153.157 3075812.505 1.384
323153.185 3075812.453 1.383
323153.220 3075812.405 1.383
323153.199 3075812.427 1.383
323153.206 3075812.414 1.383
323153.226 3075812.387 1.383
323153.204 3075812.379 1.382
323153.148 3075812.373 1.380
323153.081 3075812.352 1.377
323153.017 3075812.308 1.372
323152.985 3075812.263 1.368
323152.977 3075812.203 1.365
323152.946 3075812.120 1.358
323152.884 3075812.047 1.353
323152.799 3075811.983 1.350
323152.717 3075811.911 1.348
323152.698 3075811.823 1.346
323152.635 3075811.717 1.341
323152.563 3075811.640 1.332
323152.469 3075811.611 1.321
323152.361 3075811.532 1.304
323152.310 3075811.454 1.293
323152.294 3075811.377 1.285
323152.253 3075811.287 1.275
323152.181 3075811.220 1.264
323152.085 3075811.167 1.255
323151.984 3075811.091 1.247
323151.901 3075811.036 1.242
323151.854 3075810.964 1.239
323151.845 3075810.898 1.237
323151.798 3075810.813 1.233
323151.726 3075810.731 1.227
323151.630 3075810.679 1.219
323151.526 3075810.620 1.211
323151.448 3075810.565 1.205
323151.421 3075810.509 1.202
323151.419 3075810.437 1.199
323151.373 3075810.350 1.193
323151.319 3075810.273 1.188
323151.245 3075810.225 1.182
323151.152 3075810.181 1.176
323151.068 3075810.108 1.171
323151.002 3075810.037 1.167
323150.992 3075809.951 1.165
323150.940 3075809.855 1.161
323150.896 3075809.763 1.157
323150.825 3075809.698 1.152
323150.741 3075809.662 1.148
323150.652 3075809.593 1.142
323150.570 3075809.535 1.137
323150.536 3075809.468 1.133
323150.521 3075809.397 1.131
323150.472 3075809.301 1.127
323150.410 3075809.225 1.124
323150.317 3075809.160 1.123
323150.219 3075809.111 1.121
323150.124 3075809.039 1.116
323150.050 3075808.959 1.109
323150.030 3075808.882 1.104
323149.973 3075808.784 1.095
323149.914 3075808.691 1.086
323149.831 3075808.627 1.076
323149.752 3075808.580 1.068
323149.638 3075808.494 1.055
323149.574 3075808.413 1.048
323149.531 3075808.325 1.041
323149.448 3075808.225 1.033
323149.369 3075808.126 1.027
323149.270 3075808.078 1.022
323149.159 3075807.990 1.015
323149.062 3075807.931 1.007
323149.022 3075807.853 1.000
323149.006 3075807.770 0.994
323148.928 3075807.670 0.981
323148.843 3075807.594 0.969
323148.753 3075807.540 0.958
323148.669 3075807.475 0.948
323148.585 3075807.396 0.938
323148.529 3075807.312 0.930
323148.507 3075807.245 0.926
323148.453 3075807.160 0.921
323148.402 3075807.081 0.918
323148.324 3075807.024 0.915
323148.237 3075806.963 0.914
323148.149 3075806.893 0.912
323148.067 3075806.838 0.909
323148.020 3075806.764 0.906
323147.992 3075806.689 0.904
323147.939 3075806.598 0.900
323147.882 3075806.508 0.895
323147.802 3075806.427 0.891
323147.709 3075806.363 0.887
323147.614 3075806.256 0.882
323147.533 3075806.169 0.879
323147.531 3075806.099 0.878
323147.463 3075806.004 0.876
323147.400 3075805.907 0.874
323147.303 3075805.843 0.874
323147.200 3075805.794 0.872
323147.088 3075805.726 0.868
323147.015 3075805.660 0.863
323146.990 3075805.590 0.859
323146.919 3075805.499 0.853
323146.840 3075805.409 0.846
323146.731 3075805.353 0.843
323146.618 3075805.288 0.841
323146.502 3075805.213 0.837
323146.441 3075805.122 0.833
323146.420 3075805.033 0.829
323146.364 3075804.922 0.823
323146.289 3075804.819 0.816
323146.192 3075804.774 0.812
323146.062 3075804.685 0.805
323145.959 3075804.591 0.798
323145.933 3075804.497 0.795
323145.876 3075804.385 0.790
323145.803 3075804.281 0.788
323145.711 3075804.215 0.788
323145.608 3075804.125 0.789
323145.505 3075804.036 0.789
323145.461 3075803.938 0.789
323145.408 3075803.842 0.787
323145.346 3075803.723 0.784
323145.263 3075803.630 0.781
323145.143 3075803.562 0.779
323144.999 3075803.455 0.777
323144.901 3075803.341 0.777
323144.875 3075803.239 0.776
323144.809 3075803.128 0.776
323144.714 3075803.055 0.775
323144.615 3075803.016 0.775
323144.488 3075802.943 0.771
323144.382 3075802.867 0.766
323144.353 3075802.780 0.762
323144.317 3075802.693 0.758
323144.253 3075802.599 0.752
323144.176 3075802.523 0.748
323144.104 3075802.459 0.745
323143.997 3075802.347 0.740
323143.916 3075802.247 0.737
323143.902 3075802.165 0.734
323143.856 3075802.060 0.730
323143.798 3075801.960 0.724
323143.700 3075801.890 0.718
323143.606 3075801.823 0.709
323143.490 3075801.734 0.695
323143.429 3075801.632 0.685
323143.412 3075801.540 0.680
323143.334 3075801.413 0.670
323143.260 3075801.306 0.664
323143.151 3075801.222 0.665
323143.037 3075801.135 0.668
323142.909 3075801.036 0.670
323142.828 3075800.928 0.670
323142.806 3075800.828 0.670
323142.729 3075800.709 0.670
323142.657 3075800.593 0.671
323142.558 3075800.530 0.674
323142.460 3075800.440 0.674
323142.339 3075800.349 0.669
323142.268 3075800.251 0.662
323142.247 3075800.159 0.657
323142.166 3075800.036 0.644
323142.080 3075799.920 0.631
323141.979 3075799.845 0.621
323141.886 3075799.752 0.611
323141.787 3075799.649 0.601
323141.733 3075799.543 0.593
323141.683 3075799.438 0.586
323141.605 3075799.322 0.577
323141.497 3075799.230 0.571
323141.375 3075799.150 0.568
323141.229 3075799.042 0.562
323141.127 3075798.940 0.557
323141.084 3075798.846 0.552
323140.978 3075798.734 0.542
323140.862 3075798.643 0.532
323140.756 3075798.577 0.524
323140.633 3075798.496 0.515
323140.517 3075798.407 0.507
323140.441 3075798.299 0.502
323140.339 3075798.204 0.498
323140.244 3075798.108 0.499
323140.136 3075798.054 0.502
323140.028 3075797.992 0.505
323139.908 3075797.919 0.503
323139.821 3075797.838 0.499
323139.803 3075797.754 0.496
323139.764 3075797.670 0.491
323139.712 3075797.557 0.485
323139.617 3075797.463 0.480
323139.504 3075797.385 0.480
323139.382 3075797.291 0.482
323139.263 3075797.198 0.484
323139.210 3075797.100 0.486
323139.183 3075797.000 0.488
323139.089 3075796.858 0.491
323138.988 3075796.757 0.493
323138.871 3075796.667 0.495
323138.757 3075796.578 0.495
323138.665 3075796.512 0.494
323138.600 3075796.416 0.492
323138.592 3075796.333 0.491
323138.516 3075796.226 0.486
323138.411 3075796.135 0.480
323138.281 3075796.064 0.476
323138.147 3075795.964 0.469
323138.032 3075795.871 0.462
323137.988 3075795.767 0.457
323137.958 3075795.673 0.452
323137.893 3075795.562 0.446
323137.803 3075795.473 0.442
323137.692 3075795.405 0.442
323137.593 3075795.325 0.441
323137.507 3075795.261 0.440
323137.460 3075795.172 0.439
323137.433 3075795.090 0.437
323137.371 3075794.996 0.434
323137.282 3075794.916 0.432
323137.167 3075794.854 0.435
323137.051 3075794.795 0.438
323136.942 3075794.729 0.439
323136.889 3075794.655 0.438
323136.869 3075794.569 0.438
323136.822 3075794.482 0.437
323136.746 3075794.382 0.436
323136.648 3075794.313 0.436
323136.520 3075794.264 0.435
323136.413 3075794.203 0.431
323136.306 3075794.153 0.425
323136.252 3075794.091 0.421
323136.228 3075794.013 0.418
323136.173 3075793.956 0.415
323136.125 3075793.882 0.414
323136.047 3075793.825 0.414
323135.952 3075793.762 0.417
323135.859 3075793.699 0.419
323135.751 3075793.630 0.417
323135.658 3075793.546 0.411
323135.630 3075793.449 0.406
323135.616 3075793.355 0.402
323135.560 3075793.244 0.395
323135.486 3075793.147 0.388
323135.380 3075793.070 0.381
323135.278 3075793.004 0.377
323135.182 3075792.923 0.372
323135.117 3075792.837 0.368
323135.066 3075792.736 0.365
323135.048 3075792.671 0.364
323134.969 3075792.565 0.361
323134.878 3075792.483 0.361
323134.750 3075792.395 0.367
323134.637 3075792.317 0.374
323134.520 3075792.234 0.378
323134.421 3075792.140 0.376
323134.355 3075792.012 0.370
323134.336 3075791.903 0.366
323134.228 3075791.756 0.358
323134.129 3075791.632 0.350
323134.003 3075791.536 0.343
323133.919 3075791.415 0.335
323133.848 3075791.315 0.330
323133.799 3075791.177 0.326
323133.760 3075791.047 0.323
323133.662 3075790.897 0.321
323133.553 3075790.770 0.321
323133.444 3075790.664 0.318
323133.323 3075790.521 0.310
323133.240 3075790.384 0.304
323133.207 3075790.254 0.300
323133.127 3075790.090 0.295
323133.014 3075789.951 0.289
323132.886 3075789.861 0.284
323132.748 3075789.727 0.277
323132.648 3075789.603 0.272
323132.611 3075789.476 0.268
323132.523 3075789.318 0.262
323132.411 3075789.175 0.255
323132.279 3075789.071 0.251
323132.123 3075788.931 0.251
323131.993 3075788.811 0.243
323131.911 3075788.666 0.233
323131.827 3075788.524 0.222
323131.713 3075788.388 0.210
323131.566 3075788.285 0.198
323131.429 3075788.161 0.189
323131.296 3075788.041 0.180
323131.207 3075787.901 0.169
323131.160 3075787.768 0.160
323131.062 3075787.634 0.149
323130.937 3075787.521 0.139
323130.813 3075787.423 0.132
323130.668 3075787.294 0.125
323130.573 3075787.145 0.121
323130.520 3075787.010 0.120
323130.422 3075786.859 0.118
323130.279 3075786.755 0.112
323130.145 3075786.676 0.106
323129.978 3075786.569 0.099
323129.867 3075786.446 0.090
323129.789 3075786.326 0.083
323129.646 3075786.187 0.075
323129.515 3075786.073 0.070
323129.380 3075785.971 0.068
323129.221 3075785.824 0.067
323129.084 3075785.695 0.056
323129.024 3075785.563 0.045
323128.948 3075785.414 0.031
323128.843 3075785.289 0.018
323128.701 3075785.193 0.011
323128.549 3075785.054 0.007
323128.413 3075784.930 0.001
323128.307 3075784.787 -0.006
323128.179 3075784.632 -0.009
323128.042 3075784.506 -0.011
323127.883 3075784.436 -0.013
323127.690 3075784.304 -0.008
323127.541 3075784.184 -0.015
323127.451 3075784.041 -0.026
323127.383 3075783.894 -0.034
323127.270 3075783.744 -0.043
323127.131 3075783.603 -0.048
323126.986 3075783.470 -0.047
323126.847 3075783.332 -0.050
323126.778 3075783.189 -0.054
323126.739 3075783.048 -0.059
323126.641 3075782.887 -0.066
323126.517 3075782.783 -0.069
323126.358 3075782.654 -0.067
323126.200 3075782.534 -0.068
323126.096 3075782.392 -0.074
323125.998 3075782.254 -0.077
323125.872 3075782.101 -0.080
323125.731 3075782.002 -0.082
323125.566 3075781.884 -0.087
323125.418 3075781.775 -0.098
323125.344 3075781.628 -0.109
323125.261 3075781.487 -0.118
323125.149 3075781.341 -0.128
323125.015 3075781.224 -0.140
323124.915 3075781.119 -0.150
323124.774 3075780.981 -0.162
323124.658 3075780.829 -0.173
323124.579 3075780.688 -0.177
323124.460 3075780.510 -0.180
323124.317 3075780.360 -0.184
323124.172 3075780.263 -0.184
323123.985 3075780.117 -0.186
323123.882 3075779.980 -0.191
323123.820 3075779.845 -0.195
323123.707 3075779.691 -0.202
323123.583 3075779.573 -0.210
323123.460 3075779.484 -0.214
323123.316 3075779.357 -0.218
323123.230 3075779.233 -0.223
323123.197 3075779.114 -0.226
323123.110 3075778.977 -0.232
323123.007 3075778.849 -0.238
323122.866 3075778.746 -0.244
323122.744 3075778.631 -0.246
323122.605 3075778.516 -0.250
323122.511 3075778.380 -0.256
323122.451 3075778.260 -0.260
323122.325 3075778.111 -0.263
323122.191 3075778.009 -0.263
323122.036 3075777.938 -0.265
323121.915 3075777.855 -0.266
323121.866 3075777.763 -0.266
323121.842 3075777.653 -0.266
323121.761 3075777.578 -0.265
323121.665 3075777.557 -0.265
