322817.669 3076129.571 2.014
322817.655 3076129.548 2.013
322817.619 3076129.505 2.011
322817.536 3076129.447 2.007
322817.436 3076129.386 2.000
322817.305 3076129.323 1.983
322817.212 3076129.264 1.967
322817.160 3076129.172 1.952
322817.152 3076129.075 1.943
322817.186 3076128.994 1.939
322817.158 3076128.900 1.928
322817.074 3076128.827 1.916
322816.967 3076128.780 1.908
322816.842 3076128.705 1.900
322816.756 3076128.610 1.888
322816.723 3076128.502 1.875
322816.662 3076128.410 1.857
322816.573 3076128.293 1.832
322816.411 3076128.213 1.804
322816.230 3076128.119 1.778
322816.083 3076128.012 1.750
322816.003 3076127.928 1.733
322816.003 3076127.849 1.729
322815.963 3076127.767 1.726
322815.941 3076127.699 1.725
322815.847 3076127.709 1.724
322815.830 3076127.696 1.724
322815.831 3076127.689 1.723
322815.830 3076127.675 1.723
322815.822 3076127.680 1.723
322815.823 3076127.662 1.723
322815.819 3076127.661 1.723
322815.818 3076127.662 1.723
322815.818 3076127.660 1.723
322815.813 3076127.664 1.723
322815.814 3076127.656 1.723
322815.808 3076127.660 1.723
322815.795 3076127.669 1.723
322815.768 3076127.665 1.723
322815.757 3076127.670 1.723
322815.723 3076127.665 1.722
322815.726 3076127.660 1.722
322815.717 3076127.661 1.722
322815.724 3076127.650 1.722
322815.721 3076127.645 1.722
322815.710 3076127.654 1.722
322815.716 3076127.641 1.722
322815.708 3076127.647 1.722
322815.701 3076127.653 1.722
322815.712 3076127.636 1.722
322815.710 3076127.631 1.722
322815.711 3076127.629 1.722
322815.657 3076127.663 1.722
322815.634 3076127.657 1.722
322815.625 3076127.646 1.721
322815.617 3076127.634 1.721
322815.601 3076127.603 1.721
322815.571 3076127.528 1.719
322815.541 3076127.443 1.716
322815.558 3076127.403 1.715
322815.557 3076127.297 1.709
322815.483 3076127.181 1.696
322815.380 3076127.104 1.693
322815.306 3076126.998 1.694
322815.203 3076126.899 1.692
322815.146 3076126.783 1.686
322815.078 3076126.682 1.677
322815.052 3076126.567 1.668
322814.947 3076126.490 1.655
322814.843 3076126.428 1.644
322814.699 3076126.303 1.629
322814.602 3076126.199 1.621
322814.593 3076126.098 1.617
322814.539 3076125.994 1.610
322814.489 3076125.885 1.601
322814.377 3076125.807 1.590
322814.266 3076125.730 1.583
322814.162 3076125.630 1.581
322814.052 3076125.544 1.580
322813.981 3076125.432 1.578
322813.934 3076125.325 1.574
322813.837 3076125.209 1.566
322813.736 3076125.099 1.560
322813.596 3076125.014 1.555
322813.465 3076124.922 1.551
322813.318 3076124.827 1.545
322813.205 3076124.707 1.540
322813.149 3076124.608 1.538
322813.057 3076124.472 1.534
322812.981 3076124.360 1.533
322812.869 3076124.280 1.533
322812.757 3076124.179 1.532
322812.612 3076124.075 1.526
322812.513 3076123.942 1.519
322812.468 3076123.831 1.515
322812.370 3076123.682 1.508
322812.256 3076123.570 1.497
322812.132 3076123.492 1.486
322811.993 3076123.377 1.478
322811.876 3076123.268 1.480
322811.774 3076123.134 1.486
322811.696 3076123.021 1.488
322811.616 3076122.910 1.486
322811.520 3076122.838 1.483
322811.399 3076122.798 1.480
322811.273 3076122.720 1.475
322811.198 3076122.623 1.470
322811.155 3076122.507 1.464
322811.069 3076122.398 1.454
322811.002 3076122.298 1.445
322810.872 3076122.201 1.437
322810.753 3076122.090 1.437
322810.605 3076121.965 1.444
322810.474 3076121.825 1.449
322810.438 3076121.709 1.447
322810.377 3076121.581 1.441
322810.293 3076121.467 1.428
322810.182 3076121.423 1.412
322810.012 3076121.352 1.388
322809.878 3076121.206 1.388
322809.923 3076121.096 1.391
322809.853 3076120.951 1.404
322809.770 3076120.828 1.417
322809.634 3076120.717 1.425
322809.500 3076120.623 1.422
322809.378 3076120.507 1.412
322809.259 3076120.399 1.399
322809.248 3076120.301 1.393
322809.113 3076120.139 1.382
322808.998 3076120.007 1.378
322808.880 3076119.936 1.376
322808.746 3076119.824 1.370
322808.614 3076119.705 1.357
322808.549 3076119.568 1.343
322808.443 3076119.456 1.327
322808.365 3076119.339 1.316
322808.231 3076119.258 1.307
322808.052 3076119.141 1.296
322807.919 3076119.026 1.282
322807.856 3076118.905 1.270
322807.777 3076118.798 1.254
322807.674 3076118.671 1.232
322807.536 3076118.570 1.213
322807.432 3076118.448 1.204
322807.270 3076118.314 1.198
322807.174 3076118.170 1.191
322807.090 3076118.076 1.184
322806.968 3076117.927 1.171
322806.826 3076117.809 1.160
322806.723 3076117.696 1.153
322806.559 3076117.554 1.141
322806.452 3076117.414 1.127
322806.366 3076117.314 1.116
322806.240 3076117.157 1.099
322806.102 3076117.047 1.087
322805.985 3076116.920 1.081
322805.818 3076116.776 1.074
322805.710 3076116.631 1.063
322805.634 3076116.501 1.055
322805.499 3076116.319 1.044
322805.360 3076116.180 1.033
322805.232 3076116.061 1.028
322805.070 3076115.888 1.017
322804.959 3076115.738 1.001
322804.892 3076115.625 0.990
322804.762 3076115.451 0.971
322804.615 3076115.318 0.957
322804.492 3076115.202 0.949
322804.318 3076115.052 0.936
322804.209 3076114.904 0.921
322804.128 3076114.804 0.911
322804.016 3076114.648 0.897
322803.895 3076114.531 0.889
322803.773 3076114.402 0.885
322803.617 3076114.243 0.884
322803.493 3076114.122 0.874
322803.400 3076113.984 0.863
322803.296 3076113.837 0.854
322803.179 3076113.699 0.846
322803.022 3076113.577 0.843
322802.891 3076113.415 0.850
322802.753 3076113.275 0.849
322802.666 3076113.131 0.842
322802.578 3076113.025 0.835
322802.477 3076112.900 0.827
322802.348 3076112.776 0.819
322802.207 3076112.655 0.818
322802.061 3076112.521 0.818
322801.943 3076112.383 0.810
322801.869 3076112.256 0.805
322801.742 3076112.074 0.800
322801.613 3076111.913 0.793
322801.472 3076111.795 0.788
322801.282 3076111.614 0.782
322801.155 3076111.447 0.768
322801.102 3076111.321 0.758
322800.973 3076111.143 0.740
322800.843 3076111.018 0.724
322800.718 3076110.892 0.716
322800.535 3076110.688 0.711
322800.425 3076110.516 0.699
322800.375 3076110.389 0.692
322800.252 3076110.186 0.681
322800.097 3076110.047 0.676
322799.943 3076109.923 0.679
322799.764 3076109.777 0.677
322799.641 3076109.629 0.664
322799.554 3076109.510 0.656
322799.418 3076109.354 0.647
322799.261 3076109.228 0.642
322799.136 3076109.109 0.643
322798.952 3076108.975 0.639
322798.841 3076108.812 0.624
322798.789 3076108.680 0.613
322798.677 3076108.510 0.594
322798.519 3076108.362 0.570
322798.361 3076108.271 0.562
322798.172 3076108.108 0.552
322798.052 3076107.965 0.535
322797.989 3076107.843 0.523
322797.837 3076107.670 0.507
322797.709 3076107.543 0.499
322797.556 3076107.406 0.496
322797.372 3076107.230 0.495
322797.238 3076107.048 0.482
322797.141 3076106.893 0.474
322797.021 3076106.708 0.460
322796.851 3076106.578 0.442
322796.692 3076106.450 0.434
322796.510 3076106.302 0.421
322796.411 3076106.132 0.409
322796.317 3076105.980 0.405
322796.178 3076105.821 0.399
322796.031 3076105.674 0.394
322795.874 3076105.519 0.396
322795.733 3076105.372 0.388
322795.649 3076105.222 0.378
322795.542 3076105.063 0.374
322795.418 3076104.901 0.369
322795.277 3076104.752 0.364
322795.158 3076104.598 0.365
322795.021 3076104.450 0.356
322794.913 3076104.296 0.340
322794.805 3076104.160 0.330
322794.690 3076103.995 0.322
322794.539 3076103.847 0.316
322794.415 3076103.690 0.319
322794.246 3076103.528 0.315
322794.148 3076103.358 0.304
322794.047 3076103.223 0.301
322793.951 3076103.048 0.295
322793.816 3076102.906 0.283
322793.703 3076102.779 0.274
322793.562 3076102.635 0.264
322793.470 3076102.479 0.255
322793.407 3076102.359 0.252
322793.294 3076102.194 0.249
322793.153 3076102.063 0.245
322793.029 3076101.935 0.244
322792.885 3076101.785 0.246
322792.753 3076101.649 0.240
322792.654 3076101.500 0.234
322792.515 3076101.310 0.245
322792.406 3076101.151 0.257
322792.258 3076101.030 0.273
322792.113 3076100.889 0.290
322791.982 3076100.787 0.294
322791.861 3076100.646 0.287
322791.776 3076100.525 0.285
322791.640 3076100.355 0.287
322791.485 3076100.215 0.286
322791.344 3076100.097 0.288
322791.165 3076099.956 0.285
322791.030 3076099.807 0.271
322790.959 3076099.671 0.264
322790.850 3076099.495 0.256
322790.732 3076099.351 0.245
322790.612 3076099.243 0.238
322790.443 3076099.081 0.234
322790.320 3076098.949 0.221
322790.224 3076098.810 0.206
322790.142 3076098.657 0.199
322790.023 3076098.520 0.198
322789.875 3076098.404 0.193
322789.704 3076098.314 0.189
322789.542 3076098.176 0.185
322789.423 3076098.036 0.171
322789.357 3076097.898 0.158
322789.259 3076097.723 0.143
322789.130 3076097.574 0.125
322788.974 3076097.440 0.112
322788.788 3076097.275 0.113
322788.642 3076097.117 0.105
322788.552 3076096.972 0.094
322788.449 3076096.802 0.085
322788.337 3076096.650 0.072
322788.185 3076096.539 0.059
322788.014 3076096.382 0.051
322787.893 3076096.233 0.044
322787.835 3076096.104 0.038
322787.723 3076095.910 0.031
322787.602 3076095.767 0.023
322787.476 3076095.685 0.017
322787.300 3076095.545 0.007
322787.198 3076095.408 -0.001
322787.162 3076095.301 -0.007
322787.069 3076095.151 -0.019
322786.955 3076095.033 -0.029
322786.816 3076094.958 -0.033
322786.652 3076094.851 -0.033
322786.514 3076094.756 -0.035
322786.392 3076094.636 -0.041
322786.326 3076094.503 -0.044
322786.180 3076094.365 -0.049
322786.027 3076094.271 -0.057
322785.896 3076094.186 -0.064
322785.711 3076094.073 -0.073
322785.597 3076093.939 -0.078
322785.512 3076093.818 -0.082
322785.412 3076093.693 -0.087
322785.268 3076093.600 -0.089
322785.091 3076093.508 -0.084
322784.871 3076093.415 -0.087
322784.742 3076093.291 -0.100
322784.692 3076093.190 -0.109
322784.581 3076093.043 -0.123
322784.456 3076092.912 -0.134
322784.331 3076092.792 -0.138
322784.170 3076092.637 -0.142
322784.068 3076092.484 -0.147
322783.999 3076092.363 -0.151
322783.886 3076092.204 -0.157
322783.757 3076092.103 -0.159
322783.614 3076092.001 -0.165
322783.475 3076091.922 -0.172
322783.394 3076091.784 -0.177
322783.346 3076091.673 -0.181
322783.252 3076091.535 -0.186
322783.130 3076091.426 -0.191
322783.006 3076091.347 -0.195
322782.850 3076091.210 -0.198
322782.741 3076091.090 -0.203
322782.678 3076090.966 -0.209
322782.605 3076090.821 -0.218
322782.502 3076090.681 -0.227
322782.378 3076090.574 -0.231
322782.248 3076090.452 -0.232
322782.141 3076090.338 -0.234
322782.068 3076090.190 -0.238
322781.978 3076090.066 -0.242
322781.867 3076089.912 -0.245
322781.735 3076089.785 -0.248
322781.626 3076089.681 -0.252
322781.478 3076089.550 -0.263
322781.375 3076089.420 -0.274
322781.333 3076089.311 -0.281
322781.250 3076089.162 -0.289
322781.139 3076089.040 -0.295
322781.018 3076088.935 -0.299
322780.884 3076088.809 -0.308
322780.777 3076088.694 -0.318
322780.744 3076088.581 -0.323
322780.709 3076088.464 -0.328
322780.653 3076088.338 -0.332
322780.554 3076088.244 -0.333
322780.448 3076088.177 -0.335
322780.335 3076088.125 -0.339
322780.242 3076088.036 -0.343
322780.240 3076087.941 -0.346
322780.225 3076087.819 -0.350
322780.162 3076087.752 -0.355
322780.080 3076087.762 -0.358
322779.956 3076087.745 -0.364
322779.849 3076087.713 -0.369
322779.796 3076087.648 -0.373
322779.753 3076087.560 -0.379
322779.695 3076087.470 -0.383
322779.632 3076087.463 -0.385
322779.550 3076087.478 -0.387
322779.502 3076087.442 -0.389
322779.544 3076087.343 -0.389
322779.746 3076087.094 -0.390
322779.779 3076087.048 -0.390
322779.710 3076087.123 -0.390
322779.692 3076087.132 -0.390
322779.571 3076087.223 -0.391
322779.760 3076086.994 -0.391
322779.656 3076087.095 -0.391
322779.639 3076087.105 -0.391
322779.706 3076087.025 -0.391
322779.677 3076087.019 -0.391
322779.672 3076086.968 -0.392
322779.648 3076086.938 -0.392
322779.617 3076086.928 -0.393
322779.590 3076086.922 -0.393
322779.558 3076086.918 -0.394
322779.530 3076086.920 -0.394
322779.516 3076086.916 -0.394
322779.455 3076086.952 -0.394
322779.414 3076086.988 -0.394
322779.350 3076087.013 -0.395
322779.271 3076086.981 -0.396
322779.200 3076086.917 -0.400
322779.165 3076086.837 -0.404
322779.101 3076086.816 -0.408
322779.051 3076086.851 -0.410
322778.981 3076086.844 -0.415
322778.934 3076086.783 -0.421
322778.894 3076086.701 -0.430
322778.850 3076086.628 -0.440
322778.819 3076086.582 -0.446
322778.765 3076086.610 -0.449
322778.703 3076086.617 -0.453
322778.648 3076086.585 -0.459
322778.643 3076086.496 -0.463
322778.625 3076086.398 -0.469
322778.661 3076086.345 -0.469
322778.637 3076086.345 -0.470
322778.643 3076086.336 -0.470
322778.609 3076086.350 -0.471
322778.572 3076086.283 -0.476
322778.460 3076086.207 -0.483
322778.369 3076086.118 -0.487
322778.331 3076086.129 -0.488
322778.333 3076086.112 -0.488
322778.320 3076086.100 -0.489
322778.272 3076086.093 -0.489
322778.249 3076086.107 -0.490
322778.144 3076086.153 -0.490
322778.160 3076086.126 -0.490
322778.139 3076086.149 -0.490
322778.132 3076086.150 -0.491
322778.126 3076086.143 -0.491
322778.102 3076086.133 -0.491
322778.108 3076086.125 -0.491
322778.090 3076086.130 -0.491
