323159.828 3075819.743 2.268
323159.832 3075819.722 2.275
323159.838 3075819.689 2.286
323159.823 3075819.658 2.286
323159.782 3075819.649 2.271
323159.716 3075819.652 2.261
323159.648 3075819.632 2.259
323159.602 3075819.604 2.265
323159.581 3075819.558 2.262
323159.586 3075819.512 2.252
323159.575 3075819.482 2.240
323159.571 3075819.456 2.240
323159.541 3075819.430 2.241
323159.482 3075819.401 2.250
323159.439 3075819.380 2.260
323159.385 3075819.347 2.284
323159.411 3075819.332 2.269
323159.444 3075819.321 2.249
323159.468 3075819.279 2.246
323159.474 3075819.239 2.257
323159.448 3075819.201 2.271
323159.377 3075819.190 2.276
323159.342 3075819.195 2.267
323159.353 3075819.208 2.258
323159.379 3075819.209 2.259
323159.406 3075819.211 2.250
323159.401 3075819.206 2.252
323159.397 3075819.191 2.253
323159.402 3075819.178 2.253
323159.392 3075819.152 2.248
323159.348 3075819.133 2.237
323159.293 3075819.104 2.232
323159.225 3075819.071 2.227
323159.155 3075819.027 2.231
323159.107 3075818.988 2.232
323159.092 3075818.951 2.230
323159.067 3075818.908 2.226
323159.055 3075818.873 2.238
323159.015 3075818.862 2.238
323158.964 3075818.871 2.253
323158.923 3075818.858 2.252
323158.910 3075818.836 2.238
323158.896 3075818.802 2.232
323158.858 3075818.766 2.231
323158.817 3075818.755 2.230
323158.766 3075818.745 2.242
323158.733 3075818.718 2.246
323158.738 3075818.686 2.234
323158.725 3075818.634 2.225
323158.711 3075818.597 2.229
323158.696 3075818.585 2.228
323158.681 3075818.596 2.223
323158.622 3075818.677 2.183
323158.584 3075818.680 2.186
323158.561 3075818.671 2.192
323158.530 3075818.659 2.184
323158.508 3075818.640 2.183
323158.514 3075818.613 2.178
323158.556 3075818.568 2.179
323158.601 3075818.526 2.184
323158.626 3075818.497 2.187
323158.635 3075818.482 2.193
323158.633 3075818.471 2.190
323158.652 3075818.447 2.192
323158.666 3075818.424 2.195
323158.662 3075818.390 2.191
323158.627 3075818.374 2.186
323158.588 3075818.372 2.166
323158.533 3075818.364 2.163
323158.493 3075818.343 2.162
323158.465 3075818.320 2.156
323158.459 3075818.282 2.139
323158.436 3075818.243 2.125
323158.406 3075818.207 2.097
323158.380 3075818.162 2.105
323158.340 3075818.141 2.092
323158.274 3075818.130 2.060
323158.226 3075818.089 2.070
323158.188 3075818.054 2.063
323158.195 3075818.011 2.040
323158.161 3075817.948 2.033
323158.098 3075817.897 2.019
323158.012 3075817.869 1.975
323157.937 3075817.803 1.992
323157.906 3075817.749 1.989
323157.901 3075817.683 1.952
323157.885 3075817.613 1.942
323157.821 3075817.563 1.922
323157.745 3075817.536 1.860
323157.657 3075817.487 1.869
323157.591 3075817.440 1.855
323157.567 3075817.372 1.817
323157.514 3075817.299 1.816
323157.458 3075817.243 1.820
323157.380 3075817.213 1.797
323157.330 3075817.167 1.798
323157.269 3075817.130 1.808
323157.237 3075817.079 1.792
323157.233 3075817.023 1.768
323157.196 3075816.967 1.737
323157.146 3075816.899 1.753
323157.080 3075816.859 1.748
323156.979 3075816.853 1.723
323156.869 3075816.806 1.730
323156.778 3075816.753 1.738
323156.755 3075816.710 1.714
323156.766 3075816.656 1.692
323156.760 3075816.590 1.681
323156.739 3075816.519 1.691
323156.679 3075816.466 1.679
323156.593 3075816.448 1.650
323156.502 3075816.389 1.654
323156.441 3075816.333 1.663
323156.436 3075816.274 1.658
323156.450 3075816.207 1.653
323156.439 3075816.136 1.641
323156.446 3075816.066 1.650
323156.407 3075815.993 1.648
323156.355 3075815.967 1.622
323156.302 3075815.906 1.606
323156.216 3075815.829 1.617
323156.180 3075815.748 1.603
323156.157 3075815.676 1.584
323156.095 3075815.592 1.595
323156.029 3075815.549 1.582
323155.957 3075815.497 1.586
323155.861 3075815.432 1.589
323155.791 3075815.363 1.581
323155.791 3075815.299 1.551
323155.738 3075815.215 1.543
323155.685 3075815.150 1.530
323155.604 3075815.104 1.495
323155.514 3075815.024 1.508
323155.406 3075814.956 1.513
323155.356 3075814.883 1.510
323155.294 3075814.807 1.505
323155.250 3075814.713 1.511
323155.178 3075814.631 1.511
323155.116 3075814.597 1.507
323155.033 3075814.525 1.525
323154.933 3075814.449 1.524
323154.915 3075814.399 1.503
323154.874 3075814.304 1.505
323154.832 3075814.228 1.504
323154.754 3075814.189 1.478
323154.658 3075814.148 1.480
323154.548 3075814.099 1.487
323154.490 3075814.010 1.470
323154.471 3075813.923 1.452
323154.407 3075813.819 1.465
323154.325 3075813.727 1.479
323154.221 3075813.668 1.442
323154.118 3075813.618 1.423
323154.007 3075813.544 1.456
323153.934 3075813.476 1.437
323153.907 3075813.404 1.419
323153.845 3075813.323 1.412
323153.750 3075813.242 1.426
323153.653 3075813.191 1.418
323153.533 3075813.128 1.429
323153.439 3075813.062 1.424
323153.428 3075812.985 1.390
323153.387 3075812.881 1.392
323153.325 3075812.778 1.410
323153.245 3075812.744 1.395
323153.172 3075812.700 1.404
323153.119 3075812.682 1.402
323153.096 3075812.662 1.399
323153.096 3075812.619 1.397
323153.136 3075812.570 1.390
323153.157 3075812.505 1.387
323153.185 3075812.453 1.390
323153.199 3075812.427 1.388
323153.206 3075812.414 1.383
323153.220 3075812.405 1.374
323153.226 3075812.387 1.372
323153.204 3075812.379 1.365
323153.148 3075812.373 1.365
323153.081 3075812.352 1.369
323153.017 3075812.308 1.368
323152.985 3075812.263 1.362
323152.977 3075812.203 1.352
323152.946 3075812.120 1.349
323152.884 3075812.047 1.339
323152.799 3075811.983 1.354
323152.717 3075811.911 1.360
323152.698 3075811.823 1.340
323152.635 3075811.717 1.354
323152.563 3075811.640 1.336
323152.469 3075811.611 1.316
323152.361 3075811.532 1.325
323152.310 3075811.454 1.296
323152.294 3075811.377 1.268
323152.253 3075811.287 1.275
323152.181 3075811.220 1.265
323152.085 3075811.167 1.228
323151.984 3075811.091 1.249
323151.901 3075811.036 1.263
323151.854 3075810.964 1.244
323151.845 3075810.898 1.224
323151.798 3075810.813 1.229
323151.726 3075810.731 1.235
323151.630 3075810.679 1.211
323151.526 3075810.620 1.214
323151.448 3075810.565 1.222
323151.421 3075810.509 1.208
323151.419 3075810.437 1.188
323151.373 3075810.350 1.181
323151.319 3075810.273 1.194
323151.245 3075810.225 1.183
323151.152 3075810.181 1.158
323151.068 3075810.108 1.178
323151.002 3075810.037 1.181
323150.992 3075809.951 1.157
323150.940 3075809.855 1.153
323150.896 3075809.763 1.166
323150.825 3075809.698 1.155
323150.741 3075809.662 1.132
323150.652 3075809.593 1.149
323150.570 3075809.535 1.160
323150.536 3075809.468 1.137
323150.521 3075809.397 1.103
323150.472 3075809.301 1.122
323150.410 3075809.225 1.120
323150.317 3075809.160 1.129
323150.219 3075809.111 1.122
323150.124 3075809.039 1.128
323150.050 3075808.959 1.119
323150.030 3075808.882 1.092
323149.973 3075808.784 1.092
323149.914 3075808.691 1.098
323149.831 3075808.627 1.078
323149.752 3075808.580 1.041
323149.638 3075808.494 1.072
323149.574 3075808.413 1.053
323149.531 3075808.325 1.031
323149.448 3075808.225 1.025
323149.369 3075808.126 1.034
323149.270 3075808.078 1.009
323149.159 3075807.990 1.027
323149.062 3075807.931 1.032
323149.022 3075807.853 1.003
323149.006 3075807.770 0.968
323148.928 3075807.670 0.985
323148.843 3075807.594 0.977
323148.753 3075807.540 0.946
323148.669 3075807.475 0.944
323148.585 3075807.396 0.956
323148.529 3075807.312 0.936
323148.507 3075807.245 0.908
323148.453 3075807.160 0.913
323148.402 3075807.081 0.920
323148.324 3075807.024 0.912
323148.237 3075806.963 0.909
323148.149 3075806.893 0.919
323148.067 3075806.838 0.924
323148.020 3075806.764 0.906
323147.992 3075806.689 0.887
323147.939 3075806.598 0.897
323147.882 3075806.508 0.905
323147.802 3075806.427 0.893
323147.709 3075806.363 0.872
323147.614 3075806.256 0.889
323147.533 3075806.169 0.895
323147.531 3075806.099 0.864
323147.463 3075806.004 0.862
323147.400 3075805.907 0.887
323147.303 3075805.843 0.867
323147.200 3075805.794 0.871
323147.088 3075805.726 0.884
323147.015 3075805.660 0.877
323146.990 3075805.590 0.843
323146.919 3075805.499 0.843
323146.840 3075805.409 0.855
323146.731 3075805.353 0.825
323146.618 3075805.288 0.843
323146.502 3075805.213 0.859
323146.441 3075805.122 0.839
323146.420 3075805.033 0.813
323146.364 3075804.922 0.820
323146.289 3075804.819 0.822
323146.192 3075804.774 0.799
323146.062 3075804.685 0.817
323145.959 3075804.591 0.807
323145.933 3075804.497 0.777
323145.876 3075804.385 0.791
323145.803 3075804.281 0.797
323145.711 3075804.215 0.767
323145.608 3075804.125 0.794
323145.505 3075804.036 0.806
323145.461 3075803.938 0.781
323145.408 3075803.842 0.779
323145.346 3075803.723 0.798
323145.263 3075803.630 0.771
323145.143 3075803.562 0.774
323144.999 3075803.455 0.789
323144.901 3075803.341 0.770
323144.875 3075803.239 0.770
323144.809 3075803.128 0.787
323144.714 3075803.055 0.772
323144.615 3075803.016 0.770
323144.488 3075802.943 0.781
323144.382 3075802.867 0.777
323144.353 3075802.780 0.760
323144.317 3075802.693 0.745
323144.253 3075802.599 0.761
323144.176 3075802.523 0.743
323144.104 3075802.459 0.731
323143.997 3075802.347 0.754
323143.916 3075802.247 0.749
323143.902 3075802.165 0.719
323143.856 3075802.060 0.728
323143.798 3075801.960 0.737
323143.700 3075801.890 0.707
323143.606 3075801.823 0.705
323143.490 3075801.734 0.720
323143.429 3075801.632 0.696
323143.412 3075801.540 0.646
323143.334 3075801.413 0.662
323143.260 3075801.306 0.679
323143.151 3075801.222 0.645
323143.037 3075801.135 0.671
323142.909 3075801.036 0.679
323142.828 3075800.928 0.679
323142.806 3075800.828 0.654
323142.729 3075800.709 0.665
323142.657 3075800.593 0.688
323142.558 3075800.530 0.661
323142.460 3075800.440 0.676
323142.339 3075800.349 0.688
323142.268 3075800.251 0.668
323142.247 3075800.159 0.646
323142.166 3075800.036 0.638
323142.080 3075799.920 0.647
323141.979 3075799.845 0.601
323141.886 3075799.752 0.614
323141.787 3075799.649 0.619
323141.733 3075799.543 0.583
323141.683 3075799.438 0.576
323141.605 3075799.322 0.584
323141.497 3075799.230 0.559
323141.375 3075799.150 0.564
323141.229 3075799.042 0.579
323141.127 3075798.940 0.559
323141.084 3075798.846 0.537
323140.978 3075798.734 0.554
323140.862 3075798.643 0.539
323140.756 3075798.577 0.504
323140.633 3075798.496 0.525
323140.517 3075798.407 0.514
323140.441 3075798.299 0.488
323140.339 3075798.204 0.490
323140.244 3075798.108 0.511
323140.136 3075798.054 0.488
323140.028 3075797.992 0.506
323139.908 3075797.919 0.524
323139.821 3075797.838 0.516
323139.803 3075797.754 0.483
323139.764 3075797.670 0.472
323139.712 3075797.557 0.492
323139.617 3075797.463 0.479
323139.504 3075797.385 0.465
323139.382 3075797.291 0.487
323139.263 3075797.198 0.499
323139.210 3075797.100 0.474
323139.183 3075797.000 0.475
323139.089 3075796.858 0.505
323138.988 3075796.757 0.503
323138.871 3075796.667 0.474
323138.757 3075796.578 0.504
323138.665 3075796.512 0.506
323138.600 3075796.416 0.501
323138.592 3075796.333 0.470
323138.516 3075796.226 0.490
323138.411 3075796.135 0.488
323138.281 3075796.064 0.459
323138.147 3075795.964 0.480
323138.032 3075795.871 0.482
323137.988 3075795.767 0.444
323137.958 3075795.673 0.441
323137.893 3075795.562 0.454
323137.803 3075795.473 0.440
323137.692 3075795.405 0.424
323137.593 3075795.325 0.453
323137.507 3075795.261 0.453
323137.460 3075795.172 0.443
323137.433 3075795.090 0.424
323137.371 3075794.996 0.431
323137.282 3075794.916 0.430
323137.167 3075794.854 0.429
323137.051 3075794.795 0.437
323136.942 3075794.729 0.453
323136.889 3075794.655 0.447
323136.869 3075794.569 0.429
323136.822 3075794.482 0.421
323136.746 3075794.382 0.447
323136.648 3075794.313 0.441
323136.520 3075794.264 0.424
323136.413 3075794.203 0.442
323136.306 3075794.153 0.442
323136.252 3075794.091 0.431
323136.228 3075794.013 0.402
323136.173 3075793.956 0.389
323136.125 3075793.882 0.415
323136.047 3075793.825 0.420
323135.952 3075793.762 0.420
323135.859 3075793.699 0.423
323135.751 3075793.630 0.423
323135.658 3075793.546 0.424
323135.630 3075793.449 0.401
323135.616 3075793.355 0.394
323135.560 3075793.244 0.397
323135.486 3075793.147 0.389
323135.380 3075793.070 0.372
323135.278 3075793.004 0.371
323135.182 3075792.923 0.384
323135.117 3075792.837 0.382
323135.066 3075792.736 0.359
323135.048 3075792.671 0.341
323134.969 3075792.565 0.365
323134.878 3075792.483 0.369
323134.750 3075792.395 0.347
323134.637 3075792.317 0.380
323134.520 3075792.234 0.391
323134.421 3075792.140 0.389
323134.355 3075792.012 0.367
323134.336 3075791.903 0.348
323134.228 3075791.756 0.369
323134.129 3075791.632 0.357
323134.003 3075791.536 0.324
323133.919 3075791.415 0.348
323133.848 3075791.315 0.340
323133.799 3075791.177 0.313
323133.760 3075791.047 0.311
323133.662 3075790.897 0.337
323133.553 3075790.770 0.315
323133.444 3075790.664 0.315
323133.323 3075790.521 0.327
323133.240 3075790.384 0.301
323133.207 3075790.254 0.282
323133.127 3075790.090 0.310
323133.014 3075789.951 0.291
323132.886 3075789.861 0.267
323132.748 3075789.727 0.293
323132.648 3075789.603 0.274
323132.611 3075789.476 0.254
323132.523 3075789.318 0.269
323132.411 3075789.175 0.260
323132.279 3075789.071 0.231
323132.123 3075788.931 0.266
323131.993 3075788.811 0.258
323131.911 3075788.666 0.211
323131.827 3075788.524 0.227
323131.713 3075788.388 0.223
323131.566 3075788.285 0.176
323131.429 3075788.161 0.194
323131.296 3075788.041 0.200
323131.207 3075787.901 0.154
323131.160 3075787.768 0.155
323131.062 3075787.634 0.165
323130.937 3075787.521 0.122
323130.813 3075787.423 0.132
323130.668 3075787.294 0.137
323130.573 3075787.145 0.106
323130.520 3075787.010 0.117
323130.422 3075786.859 0.137
323130.279 3075786.755 0.106
323130.145 3075786.676 0.093
323129.978 3075786.569 0.117
323129.867 3075786.446 0.093
323129.789 3075786.326 0.064
323129.646 3075786.187 0.084
323129.515 3075786.073 0.076
323129.380 3075785.971 0.047
323129.221 3075785.824 0.088
323129.084 3075785.695 0.071
323129.024 3075785.563 0.022
323128.948 3075785.414 0.042
323128.843 3075785.289 0.020
323128.701 3075785.193 -0.013
323128.549 3075785.054 0.025
323128.413 3075784.930 0.006
323128.307 3075784.787 -0.025
323128.179 3075784.632 0.000
323128.042 3075784.506 -0.002
323127.883 3075784.436 -0.034
323127.690 3075784.304 0.006
323127.541 3075784.184 0.001
323127.451 3075784.041 -0.045
323127.383 3075783.894 -0.035
323127.270 3075783.744 -0.030
323127.131 3075783.603 -0.071
323126.986 3075783.470 -0.034
323126.847 3075783.332 -0.039
323126.778 3075783.189 -0.068
323126.739 3075783.048 -0.060
323126.641 3075782.887 -0.048
323126.517 3075782.783 -0.097
323126.358 3075782.654 -0.054
323126.200 3075782.534 -0.054
323126.096 3075782.392 -0.094
323125.998 3075782.254 -0.074
323125.872 3075782.101 -0.065
323125.731 3075782.002 -0.104
323125.566 3075781.884 -0.071
323125.418 3075781.775 -0.084
323125.344 3075781.628 -0.132
323125.261 3075781.487 -0.118
323125.149 3075781.341 -0.108
323125.015 3075781.224 -0.152
323124.915 3075781.119 -0.159
323124.774 3075780.981 -0.145
323124.658 3075780.829 -0.183
323124.579 3075780.688 -0.188
323124.460 3075780.510 -0.164
323124.317 3075780.360 -0.196
323124.172 3075780.263 -0.185
323123.985 3075780.117 -0.170
323123.882 3075779.980 -0.204
323123.820 3075779.845 -0.196
323123.707 3075779.691 -0.186
323123.583 3075779.573 -0.223
323123.460 3075779.484 -0.222
323123.316 3075779.357 -0.198
323123.230 3075779.233 -0.220
323123.197 3075779.114 -0.245
323123.110 3075778.977 -0.227
323123.007 3075778.849 -0.227
323122.866 3075778.746 -0.262
323122.744 3075778.631 -0.243
323122.605 3075778.516 -0.236
323122.511 3075778.380 -0.260
323122.451 3075778.260 -0.274
323122.325 3075778.111 -0.252
323122.191 3075778.009 -0.266
323122.036 3075777.938 -0.270
323121.915 3075777.855 -0.256
323121.866 3075777.763 -0.270
323121.842 3075777.653 -0.276
323121.761 3075777.578 -0.258
323121.665 3075777.557 -0.262
