322988.084 3075971.381 2.185
322988.079 3075971.372 2.187
322988.066 3075971.367 2.185
322988.055 3075971.361 2.188
322988.051 3075971.365 2.186
322988.053 3075971.374 2.181
322988.066 3075971.383 2.172
322988.090 3075971.395 2.165
322988.081 3075971.406 2.165
322988.051 3075971.411 2.174
322988.018 3075971.405 2.184
322987.996 3075971.393 2.191
322987.987 3075971.358 2.228
322988.101 3075971.308 2.223
322988.157 3075971.309 2.223
322988.202 3075971.357 2.231
322988.183 3075971.402 2.231
322988.270 3075971.381 2.224
322988.354 3075971.235 2.206
322988.413 3075971.091 2.191
322988.504 3075970.991 2.195
322988.565 3075970.928 2.181
322988.626 3075970.915 2.175
322988.661 3075970.952 2.139
322988.677 3075970.989 2.137
322988.721 3075971.012 2.127
322988.770 3075971.000 2.130
322988.743 3075970.901 2.160
322988.678 3075970.807 2.160
322988.591 3075970.723 2.161
322988.508 3075970.659 2.208
322988.447 3075970.603 2.214
322988.428 3075970.543 2.215
322988.454 3075970.475 2.209
322988.497 3075970.418 2.211
322988.460 3075970.327 2.209
322988.369 3075970.249 2.202
322988.280 3075970.164 2.182
322988.198 3075970.142 2.229
322988.162 3075970.049 2.216
322988.169 3075969.951 2.186
322988.186 3075969.867 2.173
322988.125 3075969.740 2.171
322988.006 3075969.632 2.166
322987.869 3075969.581 2.175
322987.751 3075969.534 2.174
322987.662 3075969.481 2.188
322987.622 3075969.407 2.175
322987.599 3075969.325 2.147
322987.583 3075969.231 2.124
322987.513 3075969.128 2.124
322987.400 3075969.050 2.117
322987.286 3075968.998 2.069
322987.183 3075968.942 2.090
322987.120 3075968.856 2.089
322987.102 3075968.771 2.078
322987.021 3075968.630 2.041
322986.934 3075968.486 2.034
322986.797 3075968.353 2.037
322986.650 3075968.289 2.045
322986.476 3075968.258 2.059
322986.365 3075968.221 2.094
322986.316 3075968.161 2.100
322986.294 3075968.063 2.047
322986.290 3075967.915 1.983
322986.263 3075967.784 1.994
322986.193 3075967.660 1.981
322986.100 3075967.588 2.002
322985.963 3075967.511 1.982
322985.836 3075967.422 1.991
322985.750 3075967.336 2.002
322985.690 3075967.221 1.962
322985.701 3075967.099 1.917
322985.604 3075966.955 1.924
322985.449 3075966.848 1.916
322985.290 3075966.779 1.882
322985.167 3075966.709 1.908
322985.077 3075966.585 1.874
322985.025 3075966.445 1.846
322984.950 3075966.325 1.859
322984.806 3075966.223 1.863
322984.641 3075966.140 1.827
322984.486 3075966.070 1.810
322984.357 3075965.992 1.830
322984.282 3075965.908 1.831
322984.239 3075965.782 1.801
322984.216 3075965.670 1.780
322984.136 3075965.572 1.792
322984.011 3075965.518 1.779
322983.817 3075965.441 1.734
322983.653 3075965.388 1.737
322983.556 3075965.313 1.755
322983.507 3075965.232 1.735
322983.419 3075965.079 1.703
322983.334 3075964.945 1.669
322983.208 3075964.800 1.676
322983.035 3075964.705 1.681
322982.841 3075964.595 1.634
322982.678 3075964.493 1.659
322982.563 3075964.352 1.651
322982.480 3075964.200 1.627
322982.446 3075964.076 1.625
322982.362 3075963.945 1.647
322982.231 3075963.845 1.643
322982.077 3075963.716 1.605
322981.944 3075963.624 1.633
322981.835 3075963.515 1.650
322981.807 3075963.417 1.643
322981.750 3075963.270 1.582
322981.683 3075963.115 1.603
322981.571 3075962.972 1.597
322981.460 3075962.862 1.593
322981.315 3075962.692 1.545
322981.180 3075962.548 1.564
322981.082 3075962.398 1.554
322981.005 3075962.259 1.543
322980.977 3075962.112 1.494
322980.898 3075961.952 1.513
322980.747 3075961.836 1.508
322980.589 3075961.751 1.463
322980.470 3075961.699 1.503
322980.387 3075961.587 1.501
322980.248 3075961.409 1.451
322980.128 3075961.259 1.478
322979.953 3075961.119 1.475
322979.773 3075960.983 1.456
322979.611 3075960.869 1.487
322979.493 3075960.739 1.488
322979.405 3075960.597 1.461
322979.345 3075960.455 1.452
322979.242 3075960.311 1.468
322979.092 3075960.168 1.456
322978.934 3075960.016 1.414
322978.791 3075959.868 1.443
322978.680 3075959.698 1.428
322978.622 3075959.524 1.389
322978.564 3075959.385 1.417
322978.438 3075959.233 1.424
322978.285 3075959.082 1.408
322978.142 3075958.955 1.388
322978.004 3075958.797 1.409
322977.919 3075958.633 1.400
322977.862 3075958.499 1.371
322977.787 3075958.339 1.400
322977.641 3075958.207 1.401
322977.486 3075958.030 1.353
322977.357 3075957.914 1.377
322977.268 3075957.769 1.379
322977.211 3075957.615 1.366
322977.160 3075957.449 1.327
322977.070 3075957.281 1.360
322976.954 3075957.175 1.367
322976.820 3075957.041 1.312
322976.692 3075956.912 1.343
322976.605 3075956.754 1.344
322976.515 3075956.565 1.314
322976.460 3075956.383 1.318
322976.299 3075956.205 1.332
322976.150 3075956.093 1.294
322976.014 3075955.985 1.322
322975.939 3075955.823 1.328
322975.840 3075955.659 1.274
322975.711 3075955.481 1.297
322975.511 3075955.322 1.273
322975.321 3075955.201 1.230
322975.162 3075955.089 1.263
322975.038 3075954.953 1.250
322974.952 3075954.794 1.213
322974.881 3075954.670 1.235
322974.734 3075954.558 1.237
322974.557 3075954.436 1.213
322974.404 3075954.302 1.180
322974.267 3075954.198 1.205
322974.191 3075954.096 1.194
322974.106 3075953.967 1.148
322974.026 3075953.841 1.143
322973.881 3075953.714 1.154
322973.719 3075953.602 1.145
322973.544 3075953.478 1.103
322973.390 3075953.369 1.122
322973.290 3075953.234 1.113
322973.184 3075953.067 1.080
322973.120 3075952.929 1.073
322972.993 3075952.795 1.091
322972.832 3075952.699 1.083
322972.649 3075952.606 1.039
322972.477 3075952.527 1.036
322972.345 3075952.409 1.041
322972.209 3075952.257 1.025
322972.161 3075952.134 1.005
322972.017 3075951.994 1.030
322971.867 3075951.911 1.023
322971.689 3075951.775 0.979
322971.502 3075951.643 0.982
322971.358 3075951.514 0.994
322971.273 3075951.382 0.974
322971.173 3075951.258 0.949
322971.065 3075951.129 0.969
322970.910 3075951.018 0.969
322970.737 3075950.877 0.929
322970.568 3075950.764 0.942
322970.438 3075950.632 0.950
322970.326 3075950.486 0.925
322970.280 3075950.362 0.909
322970.149 3075950.198 0.931
322969.981 3075950.058 0.925
322969.795 3075949.940 0.887
322969.638 3075949.813 0.912
322969.539 3075949.668 0.905
322969.429 3075949.499 0.860
322969.377 3075949.364 0.884
322969.229 3075949.224 0.891
322969.028 3075949.059 0.845
322968.857 3075948.951 0.848
322968.712 3075948.808 0.861
322968.588 3075948.643 0.842
322968.502 3075948.506 0.822
322968.360 3075948.345 0.838
322968.204 3075948.233 0.839
322968.035 3075948.070 0.784
322967.878 3075947.927 0.806
322967.757 3075947.777 0.797
322967.657 3075947.613 0.759
322967.601 3075947.467 0.772
322967.455 3075947.316 0.782
322967.278 3075947.162 0.758
322967.100 3075947.046 0.739
322966.946 3075946.891 0.754
322966.827 3075946.717 0.739
322966.770 3075946.554 0.712
322966.670 3075946.394 0.731
322966.518 3075946.261 0.729
322966.357 3075946.125 0.700
322966.178 3075945.998 0.667
322966.024 3075945.858 0.680
322965.914 3075945.713 0.668
322965.847 3075945.548 0.635
322965.737 3075945.396 0.653
322965.566 3075945.273 0.652
322965.383 3075945.114 0.606
322965.181 3075944.978 0.629
322965.068 3075944.831 0.626
322964.958 3075944.650 0.596
322964.876 3075944.492 0.631
322964.737 3075944.358 0.652
322964.551 3075944.206 0.617
322964.398 3075944.095 0.655
322964.247 3075943.958 0.668
322964.135 3075943.794 0.645
322964.072 3075943.657 0.695
322963.940 3075943.504 0.719
322963.751 3075943.345 0.693
322963.600 3075943.251 0.712
322963.453 3075943.107 0.726
322963.319 3075942.919 0.700
322963.281 3075942.798 0.713
322963.155 3075942.645 0.740
322962.985 3075942.519 0.736
322962.815 3075942.390 0.717
322962.669 3075942.282 0.727
322962.571 3075942.189 0.749
322962.508 3075942.092 0.739
322962.420 3075941.937 0.691
322962.314 3075941.775 0.671
322962.182 3075941.628 0.676
322962.061 3075941.554 0.664
322961.947 3075941.436 0.614
322961.782 3075941.286 0.573
322961.651 3075941.157 0.585
322961.576 3075941.051 0.572
322961.480 3075940.923 0.528
322961.378 3075940.776 0.498
322961.258 3075940.650 0.518
322961.112 3075940.547 0.504
322960.958 3075940.416 0.451
322960.786 3075940.285 0.425
322960.652 3075940.157 0.431
322960.560 3075940.033 0.416
322960.458 3075939.889 0.373
322960.348 3075939.751 0.382
322960.221 3075939.632 0.389
322960.068 3075939.524 0.379
322959.896 3075939.414 0.327
322959.751 3075939.305 0.347
322959.644 3075939.183 0.334
322959.551 3075939.025 0.307
322959.516 3075938.895 0.301
322959.399 3075938.749 0.317
322959.264 3075938.637 0.313
322959.129 3075938.494 0.266
322958.999 3075938.359 0.289
322958.880 3075938.214 0.284
322958.789 3075938.055 0.249
322958.730 3075937.918 0.246
322958.626 3075937.786 0.256
322958.492 3075937.685 0.244
322958.314 3075937.550 0.205
322958.151 3075937.445 0.201
322958.000 3075937.321 0.207
322957.881 3075937.187 0.198
322957.824 3075937.064 0.179
322957.729 3075936.931 0.191
322957.582 3075936.820 0.188
322957.406 3075936.687 0.154
322957.243 3075936.597 0.139
322957.102 3075936.472 0.155
322956.983 3075936.330 0.142
322956.880 3075936.181 0.106
322956.750 3075936.040 0.122
322956.609 3075935.930 0.112
322956.428 3075935.800 0.077
322956.264 3075935.681 0.069
322956.123 3075935.558 0.078
322956.019 3075935.430 0.065
322955.959 3075935.313 0.032
322955.850 3075935.175 0.046
322955.699 3075935.058 0.047
322955.532 3075934.928 0.016
322955.384 3075934.816 0.000
322955.241 3075934.680 0.009
322955.121 3075934.539 0.002
322955.047 3075934.430 -0.030
322954.920 3075934.290 -0.007
322954.745 3075934.176 -0.008
322954.579 3075934.032 -0.054
322954.418 3075933.914 -0.041
322954.276 3075933.766 -0.045
322954.153 3075933.585 -0.079
322954.064 3075933.454 -0.073
322953.892 3075933.294 -0.060
322953.701 3075933.135 -0.083
322953.540 3075933.004 -0.105
322953.380 3075932.860 -0.087
322953.236 3075932.679 -0.114
322953.167 3075932.542 -0.095
322953.006 3075932.396 -0.072
322952.806 3075932.255 -0.089
322952.657 3075932.146 -0.092
322952.510 3075932.009 -0.075
322952.385 3075931.827 -0.089
322952.315 3075931.694 -0.101
322952.188 3075931.545 -0.065
322952.016 3075931.408 -0.072
322951.865 3075931.273 -0.105
322951.707 3075931.130 -0.077
322951.580 3075930.984 -0.073
322951.478 3075930.851 -0.108
322951.342 3075930.704 -0.079
322951.177 3075930.583 -0.078
322950.991 3075930.431 -0.117
322950.818 3075930.327 -0.119
322950.654 3075930.194 -0.106
322950.518 3075930.020 -0.133
322950.416 3075929.878 -0.134
322950.228 3075929.728 -0.114
322950.008 3075929.597 -0.130
322949.851 3075929.514 -0.156
322949.698 3075929.382 -0.142
322949.590 3075929.237 -0.156
322949.522 3075929.088 -0.185
322949.455 3075928.965 -0.165
