323128.012 3075850.470 2.217
323128.022 3075850.466 2.219
323128.016 3075850.465 2.220
323127.959 3075850.448 2.208
323127.905 3075850.444 2.202
323127.880 3075850.416 2.200
323127.863 3075850.345 2.180
323127.903 3075850.279 2.141
323127.833 3075850.144 2.148
323127.725 3075850.007 2.105
323127.626 3075849.944 2.078
323127.548 3075849.851 2.081
323127.493 3075849.723 2.054
323127.519 3075849.624 2.004
323127.461 3075849.511 1.992
323127.389 3075849.417 1.969
323127.292 3075849.407 1.955
323127.221 3075849.331 1.943
323127.157 3075849.180 1.881
323127.129 3075849.051 1.835
323127.024 3075848.914 1.853
323126.857 3075848.788 1.783
323126.738 3075848.729 1.802
323126.663 3075848.616 1.783
323126.569 3075848.460 1.761
323126.501 3075848.329 1.769
323126.362 3075848.222 1.776
323126.181 3075848.114 1.745
323126.033 3075848.058 1.766
323125.922 3075847.932 1.753
323125.880 3075847.792 1.741
323125.863 3075847.695 1.762
323125.750 3075847.571 1.769
323125.631 3075847.456 1.744
323125.512 3075847.361 1.736
323125.423 3075847.255 1.737
323125.373 3075847.140 1.738
323125.326 3075847.013 1.712
323125.321 3075846.904 1.707
323125.247 3075846.794 1.715
323125.154 3075846.707 1.702
323125.056 3075846.652 1.664
323124.963 3075846.620 1.674
323124.885 3075846.535 1.662
323124.880 3075846.457 1.683
323124.840 3075846.336 1.656
323124.814 3075846.240 1.644
323124.737 3075846.146 1.654
323124.627 3075846.058 1.635
323124.517 3075846.006 1.610
323124.414 3075845.982 1.626
323124.323 3075845.902 1.610
323124.285 3075845.800 1.608
323124.243 3075845.697 1.583
323124.176 3075845.586 1.602
323124.049 3075845.496 1.608
323123.902 3075845.401 1.559
323123.762 3075845.345 1.576
323123.640 3075845.244 1.581
323123.573 3075845.144 1.571
323123.514 3075845.021 1.553
323123.479 3075844.917 1.563
323123.392 3075844.821 1.558
323123.299 3075844.735 1.543
323123.177 3075844.644 1.538
323123.063 3075844.541 1.558
323122.977 3075844.424 1.557
323122.905 3075844.293 1.540
323122.879 3075844.165 1.532
323122.836 3075844.035 1.547
323122.757 3075843.934 1.543
323122.628 3075843.834 1.535
323122.503 3075843.778 1.532
323122.404 3075843.694 1.566
323122.348 3075843.595 1.558
323122.339 3075843.492 1.542
323122.256 3075843.340 1.498
323122.232 3075843.219 1.502
323122.112 3075843.112 1.504
323121.958 3075843.025 1.475
323121.823 3075842.971 1.488
323121.705 3075842.886 1.490
323121.648 3075842.803 1.492
323121.579 3075842.684 1.457
323121.585 3075842.572 1.457
323121.476 3075842.460 1.464
323121.304 3075842.387 1.465
323121.130 3075842.333 1.428
323120.973 3075842.280 1.455
323120.872 3075842.195 1.448
323120.841 3075842.083 1.441
323120.865 3075841.997 1.447
323120.778 3075841.906 1.432
323120.669 3075841.836 1.448
323120.493 3075841.745 1.420
323120.355 3075841.637 1.440
323120.249 3075841.511 1.436
323120.147 3075841.357 1.397
323120.152 3075841.248 1.410
323120.106 3075841.136 1.427
323119.998 3075841.056 1.425
323119.857 3075840.976 1.399
323119.724 3075840.897 1.435
323119.648 3075840.773 1.427
323119.642 3075840.638 1.400
323119.624 3075840.513 1.412
323119.539 3075840.351 1.411
323119.430 3075840.215 1.377
323119.305 3075840.166 1.394
323119.233 3075840.058 1.407
323119.195 3075839.932 1.382
323119.159 3075839.772 1.359
323119.195 3075839.653 1.401
323119.168 3075839.539 1.403
323119.116 3075839.468 1.403
323119.006 3075839.374 1.385
323118.868 3075839.276 1.369
323118.723 3075839.182 1.381
323118.616 3075839.075 1.388
323118.523 3075838.945 1.358
323118.500 3075838.828 1.350
323118.376 3075838.711 1.355
323118.207 3075838.607 1.342
323118.039 3075838.581 1.347
323117.911 3075838.504 1.373
323117.815 3075838.382 1.369
323117.773 3075838.261 1.318
323117.655 3075838.137 1.332
323117.493 3075838.020 1.313
323117.320 3075837.997 1.306
323117.172 3075837.904 1.333
323117.090 3075837.768 1.292
323117.047 3075837.659 1.279
323116.901 3075837.514 1.290
323116.715 3075837.386 1.252
323116.573 3075837.342 1.260
323116.445 3075837.235 1.269
323116.346 3075837.105 1.222
323116.323 3075836.993 1.243
323116.192 3075836.865 1.237
323116.049 3075836.786 1.214
323115.922 3075836.762 1.218
323115.811 3075836.674 1.226
323115.749 3075836.572 1.218
323115.689 3075836.451 1.181
323115.641 3075836.332 1.204
323115.535 3075836.239 1.208
323115.401 3075836.160 1.176
323115.278 3075836.107 1.168
323115.158 3075836.038 1.176
323115.094 3075835.951 1.158
323115.046 3075835.838 1.132
323115.075 3075835.770 1.139
323114.972 3075835.670 1.142
323114.830 3075835.583 1.133
323114.694 3075835.532 1.096
323114.571 3075835.465 1.119
323114.512 3075835.378 1.110
323114.467 3075835.266 1.082
323114.414 3075835.169 1.086
323114.289 3075835.073 1.089
323114.132 3075835.009 1.056
323113.990 3075834.987 1.062
323113.893 3075834.933 1.077
323113.871 3075834.867 1.063
323113.830 3075834.753 1.032
323113.822 3075834.660 1.039
323113.726 3075834.551 1.029
323113.602 3075834.483 1.027
323113.481 3075834.441 1.001
323113.363 3075834.435 1.013
323113.265 3075834.392 1.026
323113.219 3075834.324 1.014
323113.205 3075834.229 1.005
323113.250 3075834.164 0.999
323113.164 3075834.067 1.008
323113.026 3075833.994 0.999
323112.887 3075833.945 0.982
323112.759 3075833.892 0.990
323112.672 3075833.796 0.987
323112.646 3075833.690 0.963
323112.653 3075833.603 0.965
323112.593 3075833.503 0.977
323112.478 3075833.409 0.965
323112.352 3075833.340 0.958
323112.228 3075833.286 0.955
323112.121 3075833.223 0.968
323112.044 3075833.138 0.960
323112.013 3075833.039 0.951
323111.972 3075832.936 0.928
323111.938 3075832.835 0.934
323111.873 3075832.762 0.948
323111.772 3075832.709 0.941
323111.635 3075832.641 0.911
323111.505 3075832.582 0.924
323111.395 3075832.484 0.930
323111.337 3075832.374 0.911
323111.307 3075832.251 0.894
323111.304 3075832.161 0.900
323111.230 3075832.076 0.904
323111.092 3075832.003 0.891
323110.941 3075831.939 0.859
323110.810 3075831.863 0.873
323110.729 3075831.740 0.870
323110.684 3075831.609 0.853
323110.670 3075831.509 0.859
323110.636 3075831.400 0.863
323110.547 3075831.299 0.854
323110.431 3075831.201 0.840
323110.309 3075831.141 0.830
323110.193 3075831.049 0.847
323110.128 3075830.930 0.834
323110.092 3075830.794 0.805
323110.100 3075830.696 0.823
323110.000 3075830.587 0.837
323109.854 3075830.492 0.829
323109.704 3075830.400 0.785
323109.583 3075830.315 0.813
323109.496 3075830.192 0.808
323109.433 3075830.064 0.780
323109.415 3075829.960 0.782
323109.359 3075829.854 0.799
323109.242 3075829.768 0.792
323109.082 3075829.670 0.776
323108.947 3075829.591 0.770
323108.829 3075829.484 0.788
323108.744 3075829.354 0.755
323108.671 3075829.221 0.726
323108.643 3075829.105 0.749
323108.577 3075829.007 0.759
323108.491 3075828.940 0.755
323108.384 3075828.872 0.756
323108.266 3075828.790 0.722
323108.150 3075828.695 0.726
323108.067 3075828.586 0.725
323107.999 3075828.457 0.710
323108.053 3075828.386 0.715
323108.003 3075828.272 0.736
323107.882 3075828.145 0.716
323107.741 3075828.043 0.677
323107.622 3075827.949 0.698
323107.553 3075827.823 0.693
323107.549 3075827.702 0.678
323107.530 3075827.575 0.644
323107.506 3075827.455 0.664
323107.390 3075827.340 0.657
323107.257 3075827.275 0.661
323107.158 3075827.194 0.633
323107.036 3075827.105 0.640
323106.968 3075826.982 0.613
323106.942 3075826.860 0.594
323106.908 3075826.765 0.610
323106.788 3075826.666 0.620
323106.622 3075826.576 0.607
323106.467 3075826.520 0.586
323106.334 3075826.422 0.606
323106.193 3075826.289 0.587
323106.162 3075826.155 0.599
323106.121 3075826.048 0.613
323106.021 3075825.971 0.620
323105.885 3075825.888 0.610
323105.765 3075825.829 0.639
323105.669 3075825.746 0.650
323105.617 3075825.657 0.642
323105.590 3075825.571 0.631
323105.593 3075825.506 0.634
323105.619 3075825.471 0.649
323105.581 3075825.443 0.653
323105.541 3075825.442 0.651
323105.514 3075825.448 0.650
323105.518 3075825.436 0.641
323105.537 3075825.406 0.643
323105.566 3075825.386 0.651
323105.486 3075825.329 0.648
323105.361 3075825.265 0.639
323105.232 3075825.238 0.660
323105.151 3075825.169 0.678
323105.115 3075825.070 0.655
323105.104 3075824.968 0.660
323105.122 3075824.873 0.673
323105.104 3075824.806 0.685
323105.015 3075824.749 0.677
323104.893 3075824.673 0.666
323104.761 3075824.618 0.686
323104.636 3075824.522 0.683
323104.539 3075824.395 0.659
323104.555 3075824.282 0.683
323104.488 3075824.189 0.714
323104.353 3075824.085 0.713
323104.201 3075824.021 0.703
323104.050 3075823.913 0.742
323103.976 3075823.769 0.733
323103.964 3075823.630 0.708
323103.913 3075823.509 0.733
323103.778 3075823.395 0.725
323103.614 3075823.320 0.665
323103.481 3075823.252 0.683
323103.414 3075823.136 0.663
323103.366 3075823.016 0.609
323103.334 3075822.905 0.616
323103.220 3075822.812 0.619
323103.072 3075822.757 0.584
323102.961 3075822.755 0.584
323102.871 3075822.735 0.599
323102.811 3075822.668 0.588
323102.777 3075822.571 0.561
323102.788 3075822.470 0.524
323102.784 3075822.386 0.534
323102.687 3075822.322 0.527
323102.548 3075822.291 0.507
323102.421 3075822.305 0.497
323102.304 3075822.292 0.506
323102.223 3075822.237 0.504
323102.182 3075822.160 0.482
323102.182 3075822.079 0.471
323102.166 3075821.995 0.461
323102.099 3075821.916 0.457
323102.044 3075821.868 0.453
323101.944 3075821.808 0.406
323101.836 3075821.726 0.402
323101.737 3075821.639 0.407
323101.674 3075821.541 0.391
323101.633 3075821.429 0.382
323101.591 3075821.317 0.355
323101.547 3075821.201 0.368
323101.442 3075821.103 0.365
323101.300 3075821.005 0.353
323101.179 3075820.915 0.318
323101.062 3075820.817 0.341
323100.984 3075820.693 0.320
323100.906 3075820.541 0.287
323100.877 3075820.420 0.295
323100.784 3075820.291 0.303
323100.654 3075820.184 0.295
323100.514 3075820.082 0.257
323100.388 3075819.975 0.278
323100.284 3075819.846 0.276
323100.200 3075819.710 0.262
323100.180 3075819.586 0.239
323100.105 3075819.454 0.260
323099.990 3075819.348 0.256
323099.850 3075819.220 0.223
323099.710 3075819.119 0.225
323099.589 3075818.995 0.238
323099.501 3075818.859 0.215
323099.445 3075818.729 0.186
323099.387 3075818.610 0.212
323099.283 3075818.503 0.215
323099.155 3075818.418 0.208
323099.004 3075818.320 0.166
323098.864 3075818.228 0.189
323098.760 3075818.106 0.184
323098.680 3075817.966 0.170
323098.644 3075817.845 0.143
323098.568 3075817.720 0.164
323098.457 3075817.622 0.168
323098.314 3075817.518 0.144
323098.177 3075817.428 0.129
323098.061 3075817.328 0.144
323097.982 3075817.212 0.136
323097.897 3075817.077 0.108
323097.875 3075816.961 0.110
323097.794 3075816.853 0.111
323097.696 3075816.789 0.106
323097.559 3075816.718 0.085
323097.426 3075816.667 0.072
323097.311 3075816.578 0.085
323097.245 3075816.459 0.064
323097.196 3075816.332 0.043
323097.197 3075816.250 0.049
323097.109 3075816.165 0.060
323096.986 3075816.124 0.062
323096.861 3075816.088 0.028
323096.710 3075816.031 0.039
323096.625 3075815.931 0.023
323096.552 3075815.804 -0.010
323096.572 3075815.741 -0.004
323096.463 3075815.664 0.003
323096.297 3075815.624 0.001
323096.123 3075815.608 -0.027
323095.971 3075815.603 -0.003
323095.856 3075815.546 -0.021
323095.770 3075815.457 -0.042
323095.761 3075815.394 -0.043
323095.662 3075815.344 -0.037
323095.522 3075815.319 -0.037
323095.359 3075815.312 -0.054
323095.218 3075815.311 -0.048
323095.099 3075815.275 -0.044
323095.028 3075815.213 -0.060
323095.022 3075815.131 -0.073
323095.012 3075815.068 -0.058
323094.890 3075815.013 -0.058
323094.723 3075814.981 -0.068
323094.578 3075814.988 -0.068
323094.451 3075814.961 -0.053
323094.374 3075814.905 -0.055
323094.357 3075814.825 -0.079
323094.338 3075814.767 -0.075
323094.235 3075814.725 -0.080
323094.123 3075814.733 -0.079
323094.009 3075814.740 -0.114
323093.918 3075814.775 -0.098
323093.872 3075814.777 -0.086
323093.876 3075814.726 -0.091
323093.906 3075814.678 -0.095
323093.854 3075814.532 -0.125
323093.769 3075814.410 -0.124
323093.710 3075814.267 -0.107
323093.682 3075814.117 -0.130
323093.703 3075813.971 -0.147
323093.740 3075813.852 -0.123
323093.696 3075813.726 -0.115
323093.600 3075813.605 -0.114
323093.498 3075813.507 -0.120
323093.393 3075813.391 -0.086
323093.316 3075813.241 -0.106
323093.286 3075813.100 -0.126
323093.297 3075812.996 -0.101
323093.245 3075812.890 -0.085
323093.109 3075812.817 -0.085
323092.951 3075812.747 -0.101
323092.823 3075812.681 -0.077
323092.735 3075812.568 -0.076
323092.682 3075812.420 -0.111
323092.654 3075812.294 -0.068
323092.517 3075812.158 -0.065
323092.345 3075812.047 -0.082
323092.218 3075811.966 -0.071
323092.129 3075811.851 -0.057
323092.085 3075811.718 -0.074
323092.109 3075811.605 -0.100
323092.077 3075811.503 -0.086
323091.968 3075811.415 -0.091
323091.848 3075811.370 -0.085
323091.742 3075811.336 -0.100
323091.643 3075811.315 -0.084
323091.579 3075811.293 -0.075
323091.538 3075811.247 -0.069
323091.516 3075811.166 -0.075
323091.539 3075811.049 -0.089
323091.590 3075810.938 -0.120
323091.575 3075810.807 -0.092
323091.474 3075810.672 -0.092
323091.354 3075810.560 -0.128
323091.246 3075810.448 -0.098
323091.168 3075810.283 -0.125
323091.142 3075810.120 -0.156
323091.140 3075809.995 -0.139
323091.073 3075809.860 -0.133
323090.969 3075809.702 -0.162
323090.843 3075809.620 -0.158
323090.787 3075809.486 -0.144
323090.792 3075809.324 -0.169
323090.830 3075809.165 -0.203
323090.855 3075809.043 -0.182
323090.798 3075808.900 -0.186
323090.719 3075808.800 -0.206
323090.679 3075808.732 -0.181
323090.670 3075808.613 -0.203
323090.701 3075808.489 -0.207
323090.738 3075808.386 -0.208
323090.722 3075808.271 -0.196
323090.634 3075808.176 -0.198
323090.502 3075808.096 -0.218
323090.390 3075808.077 -0.200
323090.319 3075807.960 -0.210
323090.274 3075807.828 -0.230
323090.256 3075807.697 -0.259
323090.209 3075807.567 -0.247
323090.085 3075807.469 -0.246
323089.924 3075807.380 -0.265
323089.761 3075807.323 -0.270
323089.630 3075807.230 -0.250
323089.546 3075807.105 -0.272
323089.476 3075806.951 -0.321
323089.457 3075806.836 -0.304
323089.325 3075806.734 -0.301
323089.149 3075806.629 -0.321
323088.986 3075806.600 -0.319
323088.869 3075806.495 -0.308
323088.792 3075806.360 -0.320
323088.773 3075806.238 -0.339
323088.681 3075806.138 -0.329
323088.548 3075806.047 -0.332
323088.411 3075805.997 -0.343
323088.306 3075805.968 -0.335
323088.250 3075805.881 -0.339
323088.220 3075805.774 -0.356
323088.261 3075805.653 -0.386
323088.255 3075805.538 -0.385
323088.150 3075805.430 -0.387
323088.026 3075805.355 -0.394
323087.870 3075805.346 -0.402
323087.768 3075805.281 -0.411
323087.702 3075805.192 -0.422
