322968.023 3075980.659 2.552
322968.010 3075980.667 2.552
322967.971 3075980.709 2.552
322967.983 3075980.690 2.552
322967.819 3075980.851 2.552
322967.969 3075980.671 2.552
322967.983 3075980.646 2.552
322967.965 3075980.654 2.552
322967.606 3075981.004 2.553
322967.617 3075980.989 2.553
322967.610 3075980.997 2.553
322967.615 3075980.991 2.553
322967.681 3075980.904 2.553
322967.610 3075980.985 2.553
322967.604 3075980.986 2.553
322967.594 3075980.986 2.553
322967.616 3075980.947 2.553
322967.631 3075980.907 2.553
322967.620 3075980.881 2.553
322967.578 3075980.918 2.553
322967.554 3075980.938 2.553
322967.543 3075980.828 2.551
322967.859 3075980.391 2.549
322967.870 3075980.356 2.549
322967.620 3075980.594 2.545
322967.774 3075980.406 2.545
322967.652 3075980.534 2.544
322967.517 3075980.694 2.544
322967.710 3075980.458 2.543
322967.600 3075980.574 2.542
322967.572 3075980.522 2.533
322967.513 3075980.582 2.532
322967.541 3075980.520 2.527
322967.556 3075980.499 2.527
322967.649 3075980.213 2.482
322967.487 3075980.180 2.369
322967.361 3075980.147 2.262
322967.328 3075980.085 2.234
322967.314 3075979.989 2.224
322967.321 3075979.903 2.220
322967.237 3075979.775 2.194
322967.119 3075979.675 2.151
322967.013 3075979.617 2.126
322966.954 3075979.577 2.113
322967.007 3075979.500 2.111
322966.960 3075979.537 2.108
322967.025 3075979.403 2.099
322967.041 3075979.328 2.088
322966.937 3075979.254 2.031
322966.794 3075979.184 1.947
322966.694 3075979.167 1.910
322966.739 3075979.067 1.902
322966.632 3075979.129 1.894
322966.660 3075979.072 1.891
322966.724 3075978.982 1.890
322966.672 3075978.923 1.879
322966.721 3075978.730 1.868
322966.588 3075978.873 1.867
322966.564 3075978.845 1.863
322966.764 3075978.606 1.863
322966.541 3075978.840 1.860
322966.608 3075978.740 1.858
322966.494 3075978.859 1.857
322966.491 3075978.846 1.855
322966.535 3075978.793 1.855
322966.747 3075978.428 1.845
322966.705 3075978.282 1.826
322966.694 3075978.121 1.807
322966.721 3075978.000 1.797
322966.749 3075977.868 1.787
322966.684 3075977.695 1.777
322966.560 3075977.522 1.748
322966.407 3075977.349 1.720
322966.290 3075977.192 1.712
322966.209 3075977.039 1.708
322966.239 3075976.943 1.706
322966.105 3075976.752 1.685
322965.943 3075976.632 1.651
322965.753 3075976.533 1.628
322965.579 3075976.432 1.614
322965.434 3075976.332 1.596
322965.317 3075976.201 1.577
322965.127 3075976.078 1.556
322964.917 3075976.008 1.535
322964.708 3075975.959 1.521
322964.516 3075975.897 1.517
322964.309 3075975.806 1.518
322964.171 3075975.702 1.522
322964.017 3075975.613 1.526
322963.864 3075975.572 1.521
322963.626 3075975.484 1.499
322963.416 3075975.426 1.490
322963.248 3075975.313 1.483
322963.119 3075975.171 1.471
322963.019 3075975.062 1.467
322962.860 3075974.947 1.467
322962.691 3075974.852 1.458
322962.502 3075974.750 1.442
322962.332 3075974.619 1.431
322962.229 3075974.480 1.424
322962.161 3075974.355 1.419
322962.079 3075974.220 1.416
322961.924 3075974.104 1.409
322961.751 3075973.945 1.392
322961.601 3075973.809 1.388
322961.468 3075973.655 1.386
322961.381 3075973.504 1.378
322961.348 3075973.376 1.371
322961.245 3075973.211 1.363
322961.089 3075973.069 1.352
322960.868 3075972.909 1.330
322960.681 3075972.777 1.326
322960.568 3075972.654 1.320
322960.434 3075972.491 1.306
322960.343 3075972.355 1.299
322960.180 3075972.212 1.296
322960.003 3075972.085 1.282
322959.805 3075971.976 1.267
322959.645 3075971.823 1.260
322959.527 3075971.667 1.252
322959.448 3075971.521 1.246
322959.352 3075971.365 1.245
322959.199 3075971.232 1.239
322959.031 3075971.073 1.219
322958.881 3075970.947 1.210
322958.750 3075970.799 1.204
322958.631 3075970.644 1.192
322958.541 3075970.498 1.185
322958.402 3075970.353 1.182
322958.217 3075970.251 1.172
322958.050 3075970.135 1.154
322957.873 3075969.983 1.144
322957.778 3075969.853 1.136
322957.666 3075969.710 1.122
322957.568 3075969.563 1.113
322957.394 3075969.429 1.107
322957.213 3075969.264 1.090
322957.056 3075969.150 1.085
322956.923 3075968.993 1.082
322956.824 3075968.836 1.073
322956.769 3075968.715 1.066
322956.626 3075968.544 1.061
322956.452 3075968.413 1.050
322956.276 3075968.268 1.029
322956.111 3075968.124 1.024
322955.978 3075967.983 1.018
322955.854 3075967.832 1.007
322955.778 3075967.694 1.002
322955.618 3075967.577 0.991
322955.444 3075967.458 0.978
322955.269 3075967.371 0.975
322955.142 3075967.234 0.975
322955.089 3075967.086 0.971
322955.023 3075966.952 0.966
322954.868 3075966.826 0.951
322954.689 3075966.668 0.921
322954.526 3075966.513 0.905
322954.411 3075966.354 0.900
322954.349 3075966.218 0.898
322954.273 3075966.078 0.898
322954.123 3075965.930 0.895
322953.968 3075965.789 0.878
322953.819 3075965.654 0.866
322953.686 3075965.522 0.861
322953.571 3075965.382 0.855
322953.471 3075965.219 0.851
322953.370 3075965.080 0.852
322953.223 3075964.960 0.851
322953.048 3075964.813 0.831
322952.887 3075964.684 0.820
322952.760 3075964.546 0.815
322952.635 3075964.377 0.808
322952.544 3075964.257 0.809
322952.391 3075964.113 0.819
322952.192 3075963.993 0.814
322952.037 3075963.883 0.805
322951.875 3075963.741 0.803
322951.747 3075963.585 0.800
322951.654 3075963.447 0.796
322951.538 3075963.301 0.796
322951.364 3075963.172 0.785
322951.187 3075963.032 0.762
322951.024 3075962.909 0.754
322950.901 3075962.767 0.747
322950.822 3075962.605 0.738
322950.752 3075962.474 0.732
322950.622 3075962.319 0.729
322950.447 3075962.164 0.719
322950.295 3075962.044 0.712
322950.151 3075961.911 0.711
322950.036 3075961.767 0.708
322949.952 3075961.595 0.704
322949.924 3075961.458 0.703
322949.819 3075961.304 0.702
322949.678 3075961.149 0.692
322949.539 3075961.013 0.682
322949.407 3075960.867 0.677
322949.306 3075960.720 0.669
322949.202 3075960.557 0.663
322949.109 3075960.406 0.665
322948.948 3075960.278 0.663
322948.766 3075960.139 0.651
322948.607 3075960.035 0.650
322948.457 3075959.898 0.652
322948.355 3075959.738 0.656
322948.261 3075959.582 0.666
322948.098 3075959.449 0.672
322947.908 3075959.286 0.663
322947.731 3075959.140 0.672
322947.589 3075958.965 0.684
322947.518 3075958.812 0.692
322947.427 3075958.647 0.709
322947.266 3075958.482 0.725
322947.109 3075958.309 0.729
322946.967 3075958.162 0.742
322946.857 3075957.995 0.750
322946.792 3075957.829 0.750
322946.750 3075957.663 0.751
322946.639 3075957.490 0.751
322946.469 3075957.314 0.727
322946.312 3075957.201 0.707
322946.188 3075957.079 0.685
322946.100 3075956.951 0.658
322946.062 3075956.794 0.635
322945.992 3075956.611 0.607
322945.849 3075956.437 0.573
322945.691 3075956.300 0.535
322945.539 3075956.190 0.516
322945.403 3075956.065 0.507
322945.323 3075955.940 0.495
322945.215 3075955.769 0.473
322945.105 3075955.610 0.458
322944.990 3075955.476 0.451
322944.860 3075955.367 0.435
322944.701 3075955.218 0.410
322944.562 3075955.085 0.396
322944.446 3075954.951 0.383
322944.366 3075954.800 0.369
322944.287 3075954.646 0.360
322944.145 3075954.503 0.355
322943.992 3075954.364 0.341
322943.846 3075954.216 0.323
322943.700 3075954.032 0.314
322943.590 3075953.860 0.307
322943.542 3075953.724 0.303
322943.454 3075953.547 0.298
322943.309 3075953.392 0.288
322943.154 3075953.226 0.267
322943.020 3075953.096 0.259
322942.892 3075952.948 0.254
322942.789 3075952.781 0.248
322942.741 3075952.638 0.245
322942.628 3075952.473 0.246
322942.477 3075952.361 0.241
322942.317 3075952.212 0.226
322942.174 3075952.078 0.219
322942.058 3075951.941 0.214
322941.958 3075951.799 0.206
322941.877 3075951.663 0.201
322941.758 3075951.529 0.199
322941.617 3075951.421 0.191
322941.424 3075951.271 0.168
322941.257 3075951.127 0.161
322941.126 3075950.995 0.155
322941.019 3075950.850 0.146
322940.960 3075950.714 0.142
322940.852 3075950.576 0.139
322940.708 3075950.475 0.131
322940.524 3075950.354 0.113
322940.372 3075950.232 0.106
322940.225 3075950.103 0.100
322940.100 3075949.965 0.093
322940.056 3075949.842 0.090
322939.973 3075949.712 0.088
322939.847 3075949.599 0.086
322939.679 3075949.487 0.074
322939.511 3075949.390 0.063
322939.371 3075949.270 0.056
322939.254 3075949.140 0.047
322939.161 3075948.984 0.035
322939.041 3075948.833 0.029
322938.915 3075948.706 0.025
322938.750 3075948.567 0.010
322938.605 3075948.451 -0.003
322938.466 3075948.285 -0.010
322938.351 3075948.105 -0.018
322938.303 3075947.963 -0.021
322938.170 3075947.791 -0.018
322937.983 3075947.625 -0.023
322937.831 3075947.471 -0.039
322937.692 3075947.317 -0.046
322937.577 3075947.158 -0.053
322937.497 3075946.992 -0.060
322937.404 3075946.845 -0.063
322937.278 3075946.696 -0.067
322937.114 3075946.537 -0.086
322936.969 3075946.391 -0.099
322936.834 3075946.218 -0.107
322936.731 3075946.039 -0.118
322936.670 3075945.882 -0.124
322936.535 3075945.707 -0.126
322936.359 3075945.573 -0.132
322936.182 3075945.442 -0.144
322936.032 3075945.316 -0.149
322935.913 3075945.163 -0.151
322935.834 3075945.021 -0.153
322935.742 3075944.892 -0.151
322935.608 3075944.773 -0.145
322935.456 3075944.669 -0.149
322935.274 3075944.551 -0.163
322935.109 3075944.412 -0.173
322935.006 3075944.265 -0.182
322934.931 3075944.100 -0.188
322934.881 3075943.972 -0.188
322934.764 3075943.846 -0.185
322934.621 3075943.747 -0.185
322934.455 3075943.634 -0.191
322934.321 3075943.514 -0.195
322934.233 3075943.380 -0.199
322934.179 3075943.239 -0.204
322934.150 3075943.139 -0.207
322934.056 3075943.019 -0.214
322933.945 3075942.936 -0.222
322933.793 3075942.827 -0.238
322933.628 3075942.699 -0.252
322933.473 3075942.571 -0.262
322933.359 3075942.452 -0.268
322933.327 3075942.327 -0.271
322933.280 3075942.197 -0.274
322933.188 3075942.094 -0.278
322933.035 3075941.956 -0.289
322932.849 3075941.872 -0.299
322932.703 3075941.725 -0.305
322932.600 3075941.552 -0.315
322932.542 3075941.403 -0.322
322932.449 3075941.241 -0.327
322932.317 3075941.118 -0.336
322932.145 3075940.979 -0.352
322931.967 3075940.852 -0.365
322931.866 3075940.709 -0.375
322931.807 3075940.567 -0.384
322931.763 3075940.422 -0.391
322931.606 3075940.265 -0.399
322931.447 3075940.169 -0.410
322931.300 3075940.113 -0.424
322931.174 3075939.997 -0.434
322931.121 3075939.913 -0.437
322931.107 3075939.852 -0.438
322931.096 3075939.805 -0.439
322931.092 3075939.773 -0.439
322931.098 3075939.736 -0.439
