322954.650 3075997.562 2.589
322954.662 3075997.544 2.589
322954.638 3075997.559 2.589
322954.658 3075997.518 2.589
322954.626 3075997.555 2.589
322954.615 3075997.555 2.589
322954.646 3075997.482 2.589
322954.620 3075997.441 2.588
322954.593 3075997.386 2.587
322954.528 3075997.339 2.584
322954.423 3075997.322 2.577
322954.296 3075997.295 2.558
322954.140 3075997.231 2.526
322954.045 3075997.145 2.509
322954.039 3075997.055 2.503
322954.007 3075996.954 2.492
322953.934 3075996.859 2.475
322953.829 3075996.838 2.459
322953.704 3075996.807 2.435
322953.586 3075996.743 2.405
322953.483 3075996.687 2.382
322953.422 3075996.622 2.367
322953.427 3075996.551 2.361
322953.388 3075996.478 2.350
322953.338 3075996.386 2.337
322953.276 3075996.363 2.327
322953.211 3075996.363 2.319
322953.118 3075996.368 2.306
322953.020 3075996.341 2.286
322952.938 3075996.296 2.264
322952.935 3075996.174 2.248
322952.881 3075996.238 2.248
322952.925 3075996.106 2.239
322952.918 3075996.050 2.232
322952.904 3075996.018 2.228
322952.880 3075996.006 2.225
322952.849 3075996.021 2.223
322952.793 3075996.058 2.221
322952.715 3075996.101 2.217
322952.638 3075996.146 2.214
322952.584 3075996.177 2.212
322952.557 3075996.185 2.211
322952.531 3075996.184 2.209
322952.496 3075996.187 2.207
322952.472 3075996.162 2.204
322952.453 3075996.111 2.200
322952.492 3075996.017 2.198
322952.527 3075995.919 2.196
322952.549 3075995.821 2.192
322952.505 3075995.734 2.180
322952.448 3075995.701 2.162
322952.337 3075995.710 2.128
322952.201 3075995.627 2.055
322952.197 3075995.550 2.037
322952.153 3075995.599 2.036
322952.203 3075995.423 2.017
322952.223 3075995.365 2.013
322952.224 3075995.320 2.009
322952.198 3075995.310 2.005
322952.146 3075995.325 2.002
322952.081 3075995.337 1.998
322952.038 3075995.339 1.995
322951.990 3075995.333 1.992
322951.977 3075995.312 1.991
322951.991 3075995.276 1.990
322952.014 3075995.222 1.989
322952.049 3075995.153 1.988
322952.085 3075995.082 1.987
322952.098 3075995.011 1.986
322952.122 3075994.956 1.985
322952.130 3075994.903 1.983
322952.116 3075994.872 1.981
322952.063 3075994.859 1.977
322951.979 3075994.853 1.969
322951.893 3075994.836 1.954
322951.820 3075994.785 1.927
322951.713 3075994.744 1.887
322951.728 3075994.702 1.881
322951.757 3075994.614 1.867
322951.720 3075994.550 1.837
322951.623 3075994.537 1.799
322951.562 3075994.451 1.752
322951.513 3075994.385 1.720
322951.513 3075994.289 1.702
322951.565 3075994.196 1.697
322951.564 3075994.096 1.684
322951.558 3075994.037 1.677
322951.526 3075994.014 1.672
322951.460 3075994.031 1.666
322951.393 3075994.049 1.661
322951.329 3075994.029 1.651
322951.245 3075994.007 1.638
322951.151 3075993.964 1.619
322951.102 3075993.888 1.601
322950.977 3075993.814 1.573
322950.777 3075993.785 1.554
322950.594 3075993.837 1.551
322950.367 3075993.844 1.545
322950.193 3075993.836 1.538
322950.097 3075993.751 1.529
322950.009 3075993.675 1.519
322949.844 3075993.584 1.504
322949.689 3075993.534 1.496
322949.519 3075993.477 1.491
322949.306 3075993.365 1.490
322949.126 3075993.260 1.488
322949.128 3075993.149 1.487
322948.940 3075992.993 1.483
322948.779 3075992.871 1.476
322948.599 3075992.827 1.469
322948.370 3075992.686 1.460
322948.254 3075992.558 1.456
322948.257 3075992.438 1.455
322948.251 3075992.317 1.453
322948.211 3075992.150 1.451
322948.151 3075992.013 1.449
322948.912 3075990.985 1.449
322948.935 3075990.929 1.449
322948.809 3075991.044 1.449
322948.889 3075990.912 1.449
322948.113 3075991.809 1.449
322948.676 3075991.095 1.450
322948.835 3075990.873 1.450
322948.452 3075991.314 1.450
322948.303 3075991.465 1.450
322948.547 3075991.135 1.450
322948.446 3075991.240 1.451
322948.475 3075991.193 1.451
322948.772 3075990.816 1.451
322948.711 3075990.733 1.454
322948.664 3075990.622 1.458
322948.680 3075990.534 1.461
322948.677 3075990.408 1.468
322948.584 3075990.282 1.480
322948.453 3075990.276 1.486
322948.365 3075990.160 1.486
322948.293 3075990.063 1.477
322948.283 3075989.941 1.466
322948.239 3075989.816 1.447
322948.163 3075989.675 1.419
322948.028 3075989.577 1.399
322947.892 3075989.429 1.390
322947.771 3075989.324 1.383
322947.740 3075989.204 1.378
322947.658 3075989.075 1.369
322947.575 3075988.972 1.360
322947.453 3075988.883 1.349
322947.306 3075988.811 1.339
322947.170 3075988.711 1.331
322947.081 3075988.627 1.327
322947.029 3075988.529 1.324
322947.001 3075988.438 1.321
322946.882 3075988.328 1.312
322946.736 3075988.255 1.302
322946.576 3075988.201 1.293
322946.423 3075988.098 1.282
322946.324 3075987.982 1.273
322946.306 3075987.875 1.268
322946.178 3075987.749 1.254
322946.056 3075987.646 1.243
322945.907 3075987.576 1.241
322945.766 3075987.475 1.240
322945.676 3075987.377 1.237
322945.628 3075987.263 1.231
322945.598 3075987.165 1.223
322945.476 3075987.040 1.204
322945.337 3075986.936 1.188
322945.211 3075986.859 1.182
322945.075 3075986.740 1.174
322945.002 3075986.630 1.165
322944.973 3075986.524 1.158
322944.873 3075986.407 1.145
322944.767 3075986.303 1.134
322944.638 3075986.227 1.129
322944.504 3075986.135 1.125
322944.355 3075986.016 1.115
322944.265 3075985.888 1.105
322944.243 3075985.785 1.099
322944.103 3075985.642 1.081
322943.975 3075985.538 1.067
322943.838 3075985.454 1.061
322943.685 3075985.334 1.056
322943.587 3075985.222 1.050
322943.535 3075985.097 1.044
322943.431 3075984.980 1.034
322943.315 3075984.868 1.027
322943.187 3075984.778 1.023
322943.045 3075984.657 1.020
322942.907 3075984.542 1.015
322942.836 3075984.419 1.009
322942.757 3075984.292 0.997
322942.671 3075984.172 0.985
322942.550 3075984.072 0.977
322942.410 3075983.930 0.973
322942.282 3075983.819 0.968
322942.219 3075983.671 0.959
322942.162 3075983.531 0.951
322942.037 3075983.367 0.938
322941.898 3075983.228 0.925
322941.768 3075983.132 0.914
322941.627 3075982.990 0.900
322941.554 3075982.855 0.892
322941.507 3075982.730 0.887
322941.396 3075982.571 0.883
322941.274 3075982.454 0.884
322941.142 3075982.350 0.888
322940.978 3075982.237 0.888
322940.851 3075982.113 0.879
322940.786 3075982.000 0.871
322940.689 3075981.880 0.860
322940.560 3075981.769 0.849
322940.407 3075981.688 0.844
322940.253 3075981.569 0.848
322940.132 3075981.472 0.851
322940.100 3075981.350 0.852
322940.068 3075981.241 0.853
322939.977 3075981.107 0.856
322939.858 3075980.961 0.860
322939.735 3075980.859 0.858
322939.632 3075980.747 0.850
322939.525 3075980.625 0.839
322939.496 3075980.520 0.833
322939.508 3075980.452 0.831
322939.435 3075980.329 0.821
322939.333 3075980.229 0.813
322939.218 3075980.139 0.810
322939.087 3075980.043 0.809
322938.972 3075979.963 0.808
322938.902 3075979.863 0.806
322938.829 3075979.759 0.802
322938.736 3075979.655 0.797
322938.615 3075979.585 0.792
322938.474 3075979.531 0.788
322938.318 3075979.439 0.781
322938.228 3075979.330 0.778
322938.228 3075979.226 0.776
322938.158 3075979.089 0.771
322938.079 3075978.970 0.767
322937.965 3075978.879 0.764
322937.850 3075978.770 0.760
322937.733 3075978.661 0.753
322937.673 3075978.531 0.747
322937.647 3075978.437 0.742
322937.586 3075978.305 0.735
322937.491 3075978.186 0.731
322937.391 3075978.093 0.731
322937.246 3075977.980 0.731
322937.127 3075977.876 0.728
322937.045 3075977.757 0.721
322936.986 3075977.635 0.714
322936.879 3075977.513 0.705
322936.750 3075977.410 0.698
322936.621 3075977.316 0.693
322936.480 3075977.196 0.688
322936.405 3075977.070 0.683
322936.369 3075976.968 0.679
322936.267 3075976.842 0.669
322936.139 3075976.736 0.659
322935.996 3075976.653 0.653
322935.847 3075976.535 0.646
322935.743 3075976.431 0.639
322935.687 3075976.314 0.633
322935.593 3075976.182 0.623
322935.483 3075976.056 0.615
322935.351 3075975.964 0.611
322935.214 3075975.854 0.609
322935.077 3075975.750 0.606
322934.993 3075975.624 0.600
322934.949 3075975.518 0.594
322934.854 3075975.398 0.587
322934.738 3075975.296 0.583
322934.625 3075975.200 0.585
322934.483 3075975.086 0.588
322934.362 3075974.968 0.586
322934.311 3075974.849 0.581
322934.233 3075974.729 0.574
322934.135 3075974.615 0.565
322934.001 3075974.522 0.561
322933.871 3075974.414 0.561
322933.740 3075974.316 0.564
322933.654 3075974.209 0.565
322933.594 3075974.105 0.565
322933.509 3075973.989 0.563
322933.402 3075973.891 0.563
322933.267 3075973.826 0.564
322933.115 3075973.756 0.565
322932.982 3075973.699 0.564
322932.874 3075973.602 0.559
322932.836 3075973.512 0.555
322932.731 3075973.408 0.546
322932.607 3075973.329 0.539
322932.470 3075973.274 0.533
322932.312 3075973.204 0.528
322932.153 3075973.139 0.523
322932.038 3075973.036 0.517
322931.968 3075972.942 0.514
322931.852 3075972.833 0.513
322931.710 3075972.747 0.517
322931.576 3075972.679 0.523
322931.417 3075972.607 0.529
322931.278 3075972.532 0.526
322931.193 3075972.417 0.519
322931.165 3075972.324 0.516
322931.077 3075972.195 0.509
322930.978 3075972.072 0.507
322930.869 3075971.962 0.512
322930.764 3075971.835 0.522
322930.655 3075971.726 0.530
322930.572 3075971.602 0.532
322930.544 3075971.498 0.530
322930.478 3075971.375 0.527
322930.390 3075971.263 0.524
322930.271 3075971.173 0.522
322930.137 3075971.073 0.522
322930.016 3075970.996 0.520
322929.918 3075970.894 0.513
322929.856 3075970.773 0.504
322929.802 3075970.662 0.496
322929.690 3075970.546 0.486
322929.556 3075970.442 0.480
322929.434 3075970.335 0.480
322929.298 3075970.216 0.479
322929.223 3075970.082 0.476
322929.213 3075969.967 0.473
322929.147 3075969.825 0.467
322929.073 3075969.704 0.461
322928.964 3075969.610 0.456
322928.840 3075969.492 0.452
322928.709 3075969.377 0.447
322928.635 3075969.254 0.440
322928.578 3075969.135 0.432
322928.493 3075969.010 0.421
322928.372 3075968.901 0.410
322928.253 3075968.814 0.405
322928.110 3075968.702 0.399
322928.002 3075968.590 0.391
322927.933 3075968.482 0.383
322927.833 3075968.372 0.372
322927.717 3075968.275 0.361
322927.572 3075968.189 0.353
322927.414 3075968.092 0.350
322927.281 3075968.002 0.346
322927.197 3075967.880 0.339
322927.152 3075967.770 0.334
322927.057 3075967.637 0.327
322926.961 3075967.518 0.320
322926.830 3075967.409 0.313
322926.720 3075967.303 0.308
322926.608 3075967.212 0.301
322926.522 3075967.094 0.294
322926.474 3075966.979 0.289
322926.351 3075966.820 0.284
322926.219 3075966.685 0.281
322926.070 3075966.569 0.276
322925.925 3075966.441 0.272
322925.740 3075966.323 0.258
322925.626 3075966.191 0.244
322925.518 3075966.076 0.234
322925.371 3075965.936 0.216
322925.211 3075965.820 0.204
322925.060 3075965.692 0.204
322924.882 3075965.559 0.198
322924.773 3075965.424 0.183
322924.670 3075965.305 0.170
322924.553 3075965.164 0.154
322924.409 3075965.021 0.141
322924.262 3075964.864 0.139
322924.095 3075964.718 0.128
322923.970 3075964.563 0.112
322923.868 3075964.424 0.104
322923.753 3075964.276 0.093
322923.606 3075964.152 0.082
322923.483 3075964.009 0.079
322923.317 3075963.876 0.071
322923.202 3075963.747 0.057
322923.105 3075963.644 0.045
322922.977 3075963.503 0.030
322922.835 3075963.375 0.021
322922.692 3075963.222 0.023
322922.505 3075963.081 0.019
322922.397 3075962.927 0.009
322922.333 3075962.801 0.003
322922.256 3075962.660 -0.004
322922.133 3075962.522 -0.009
322922.006 3075962.387 -0.009
322921.854 3075962.258 -0.011
322921.752 3075962.125 -0.018
322921.667 3075962.003 -0.023
322921.543 3075961.858 -0.026
322921.403 3075961.738 -0.028
322921.266 3075961.640 -0.030
322921.078 3075961.530 -0.038
322920.943 3075961.408 -0.051
322920.895 3075961.288 -0.060
322920.767 3075961.140 -0.073
322920.648 3075961.010 -0.085
322920.509 3075960.885 -0.095
322920.358 3075960.729 -0.099
322920.203 3075960.597 -0.108
322920.121 3075960.444 -0.118
322920.038 3075960.291 -0.124
322919.929 3075960.138 -0.129
322919.791 3075960.010 -0.133
322919.649 3075959.885 -0.134
322919.491 3075959.761 -0.139
322919.393 3075959.635 -0.147
322919.298 3075959.518 -0.154
322919.174 3075959.406 -0.162
322919.023 3075959.311 -0.168
322918.881 3075959.207 -0.172
322918.727 3075959.113 -0.178
322918.627 3075958.998 -0.186
322918.567 3075958.900 -0.192
322918.448 3075958.767 -0.201
322918.310 3075958.668 -0.209
322918.165 3075958.580 -0.213
322918.018 3075958.468 -0.215
322917.862 3075958.351 -0.221
322917.787 3075958.211 -0.227
322917.711 3075958.076 -0.233
322917.615 3075957.947 -0.241
322917.475 3075957.839 -0.253
322917.327 3075957.732 -0.265
322917.171 3075957.604 -0.276
322917.054 3075957.476 -0.288
322917.025 3075957.362 -0.295
322916.895 3075957.227 -0.309
322916.750 3075957.132 -0.316
322916.575 3075957.020 -0.315
322916.408 3075956.908 -0.324
322916.303 3075956.794 -0.334
322916.311 3075956.711 -0.337
322916.224 3075956.580 -0.345
322916.136 3075956.469 -0.350
322916.019 3075956.366 -0.352
322915.889 3075956.271 -0.352
322915.765 3075956.163 -0.356
322915.684 3075956.060 -0.362
322915.660 3075955.955 -0.367
322915.570 3075955.819 -0.375
322915.475 3075955.694 -0.379
322915.362 3075955.583 -0.377
322915.245 3075955.430 -0.377
322915.121 3075955.265 -0.384
322915.142 3075955.159 -0.387
322915.160 3075955.038 -0.391
322915.165 3075954.910 -0.397
322915.122 3075954.820 -0.404
322915.022 3075954.747 -0.416
322914.920 3075954.674 -0.425
322914.844 3075954.588 -0.428
322914.860 3075954.489 -0.428
322914.918 3075954.407 -0.428
322914.926 3075954.302 -0.429
322914.910 3075954.220 -0.429
322914.841 3075954.153 -0.430
322914.733 3075954.103 -0.435
322914.624 3075954.035 -0.446
322914.533 3075953.970 -0.455
322914.496 3075953.904 -0.459
322914.512 3075953.853 -0.460
322914.517 3075953.791 -0.462
322914.476 3075953.693 -0.467
322914.390 3075953.609 -0.477
322914.273 3075953.584 -0.486
322914.166 3075953.543 -0.491
322914.106 3075953.497 -0.494
322914.123 3075953.457 -0.494
322914.174 3075953.396 -0.494
322914.291 3075953.240 -0.494
322914.145 3075953.358 -0.495
322914.165 3075953.332 -0.495
322914.268 3075953.200 -0.496
322914.110 3075953.364 -0.496
322914.165 3075953.288 -0.496
322914.129 3075953.318 -0.497
322914.105 3075953.342 -0.497
322914.093 3075953.355 -0.497
322914.082 3075953.314 -0.498
322914.094 3075953.292 -0.498
322914.066 3075953.279 -0.499
322914.067 3075953.272 -0.499
322914.152 3075953.169 -0.499
322914.060 3075953.263 -0.499
322914.054 3075953.262 -0.500
322914.048 3075953.265 -0.500
322914.044 3075953.260 -0.500
322914.040 3075953.261 -0.500
322914.046 3075953.253 -0.500
322914.035 3075953.258 -0.500
322914.042 3075953.248 -0.500
322914.035 3075953.256 -0.500
322914.037 3075953.252 -0.500
322913.974 3075953.271 -0.501
322914.083 3075953.028 -0.504
322914.123 3075952.939 -0.505
322913.883 3075953.217 -0.505
322914.134 3075952.847 -0.507
322914.146 3075952.772 -0.508
322913.810 3075953.150 -0.509
322914.121 3075952.753 -0.509
322913.982 3075952.896 -0.510
322913.902 3075952.975 -0.510
322914.037 3075952.808 -0.510
322913.850 3075953.025 -0.510
322913.813 3075953.039 -0.511
322913.769 3075953.074 -0.511
322913.775 3075953.040 -0.512
