322768.554 3076178.665 1.850
322768.538 3076178.654 1.854
322768.499 3076178.593 1.866
322768.481 3076178.565 1.872
322768.454 3076178.551 1.876
322768.505 3076178.462 1.879
322768.499 3076178.464 1.879
322768.499 3076178.435 1.882
322768.484 3076178.440 1.883
322768.459 3076178.377 1.891
322768.354 3076178.483 1.893
322768.379 3076178.439 1.894
322768.393 3076178.392 1.896
322768.418 3076178.336 1.898
322768.412 3076178.287 1.902
322768.383 3076178.183 1.909
322768.285 3076178.191 1.909
322768.172 3076178.128 1.886
322768.101 3076178.097 1.863
322768.049 3076177.989 1.831
322767.971 3076177.822 1.794
322767.896 3076177.676 1.771
322767.788 3076177.579 1.757
322767.622 3076177.472 1.727
322767.423 3076177.400 1.699
322767.266 3076177.273 1.678
322767.141 3076177.117 1.666
322767.084 3076176.988 1.663
322766.979 3076176.837 1.665
322766.855 3076176.733 1.663
322766.739 3076176.563 1.661
322766.604 3076176.459 1.667
322766.423 3076176.247 1.701
322766.382 3076176.137 1.713
322766.293 3076176.001 1.736
322766.151 3076175.850 1.766
322766.039 3076175.764 1.776
322765.939 3076175.678 1.783
322765.842 3076175.555 1.793
322765.783 3076175.464 1.799
322765.698 3076175.355 1.807
322765.550 3076175.279 1.815
322765.431 3076175.205 1.822
322765.307 3076175.153 1.829
322765.259 3076175.033 1.835
322765.287 3076174.943 1.837
322765.244 3076174.839 1.842
322765.140 3076174.711 1.847
322765.016 3076174.596 1.844
322764.925 3076174.576 1.838
322764.818 3076174.529 1.826
322764.784 3076174.452 1.815
322764.765 3076174.335 1.800
322764.718 3076174.180 1.773
322764.611 3076174.024 1.745
322764.477 3076173.898 1.744
322764.362 3076173.832 1.745
322764.276 3076173.720 1.742
322764.237 3076173.593 1.737
322764.241 3076173.477 1.732
322764.175 3076173.330 1.719
322764.066 3076173.215 1.708
322763.938 3076173.132 1.707
322763.812 3076173.080 1.709
322763.729 3076172.977 1.707
322763.676 3076172.850 1.703
322763.644 3076172.731 1.697
322763.521 3076172.609 1.694
322763.389 3076172.496 1.703
322763.233 3076172.486 1.710
322763.128 3076172.390 1.711
322763.081 3076172.277 1.708
322763.075 3076172.167 1.705
322762.956 3076172.051 1.695
322762.834 3076171.960 1.687
322762.678 3076171.909 1.682
322762.557 3076171.812 1.677
322762.507 3076171.701 1.674
322762.554 3076171.615 1.673
322762.462 3076171.479 1.665
322762.347 3076171.369 1.652
322762.206 3076171.277 1.636
322762.080 3076171.191 1.619
322762.027 3076171.072 1.606
322762.022 3076170.969 1.598
322762.033 3076170.868 1.592
322761.921 3076170.700 1.562
322761.785 3076170.570 1.533
322761.662 3076170.475 1.524
322761.533 3076170.353 1.520
322761.471 3076170.239 1.519
322761.427 3076170.116 1.519
322761.368 3076169.979 1.519
322761.261 3076169.872 1.516
322761.124 3076169.760 1.505
322760.963 3076169.654 1.486
322760.833 3076169.501 1.474
322760.738 3076169.337 1.473
322760.721 3076169.229 1.473
322760.622 3076169.066 1.472
322760.482 3076168.910 1.460
322760.320 3076168.782 1.445
322760.171 3076168.609 1.434
322760.034 3076168.447 1.426
322759.995 3076168.322 1.425
322759.880 3076168.140 1.436
322759.706 3076167.981 1.442
322759.515 3076167.846 1.433
322759.337 3076167.697 1.432
322759.196 3076167.521 1.425
322759.128 3076167.374 1.419
322759.022 3076167.209 1.418
322758.851 3076167.082 1.415
322758.695 3076166.961 1.411
322758.500 3076166.800 1.419
322758.380 3076166.601 1.419
322758.349 3076166.456 1.418
322758.270 3076166.276 1.420
322758.121 3076166.141 1.416
322757.959 3076165.993 1.401
322757.787 3076165.909 1.393
322757.682 3076165.745 1.382
322757.637 3076165.574 1.369
322757.586 3076165.375 1.358
322757.441 3076165.165 1.345
322757.261 3076164.981 1.327
322757.087 3076164.812 1.331
322756.967 3076164.606 1.325
322756.895 3076164.392 1.310
322756.806 3076164.185 1.302
322756.658 3076164.017 1.290
322756.479 3076163.843 1.269
322756.324 3076163.693 1.263
322756.215 3076163.518 1.253
322756.136 3076163.331 1.240
322756.033 3076163.152 1.235
322755.897 3076163.027 1.230
322755.737 3076162.901 1.215
322755.563 3076162.776 1.205
322755.407 3076162.618 1.203
322755.277 3076162.448 1.192
322755.196 3076162.308 1.183
322755.056 3076162.158 1.173
322754.915 3076162.056 1.158
322754.753 3076161.919 1.134
322754.585 3076161.808 1.122
322754.464 3076161.661 1.115
322754.347 3076161.494 1.105
322754.266 3076161.354 1.102
322754.140 3076161.203 1.101
322754.009 3076161.106 1.092
322753.825 3076160.979 1.071
322753.661 3076160.869 1.061
322753.561 3076160.728 1.054
322753.445 3076160.570 1.038
322753.341 3076160.415 1.029
322753.205 3076160.277 1.025
322753.043 3076160.153 1.008
322752.862 3076160.028 0.988
322752.692 3076159.895 0.980
322752.593 3076159.755 0.970
322752.481 3076159.616 0.956
322752.364 3076159.463 0.946
322752.200 3076159.345 0.937
322752.029 3076159.198 0.919
322751.832 3076159.067 0.910
322751.658 3076158.899 0.905
322751.530 3076158.737 0.896
322751.462 3076158.614 0.892
322751.323 3076158.452 0.891
322751.147 3076158.314 0.877
322750.983 3076158.184 0.860
322750.810 3076158.037 0.852
322750.682 3076157.874 0.841
322750.560 3076157.730 0.829
322750.427 3076157.568 0.828
322750.259 3076157.435 0.825
322750.096 3076157.294 0.807
322749.923 3076157.177 0.794
322749.781 3076157.010 0.783
322749.665 3076156.835 0.772
322749.585 3076156.687 0.769
322749.405 3076156.527 0.763
322749.205 3076156.356 0.742
322749.007 3076156.243 0.731
322748.842 3076156.075 0.721
322748.700 3076155.905 0.706
322748.568 3076155.735 0.697
322748.409 3076155.580 0.690
322748.225 3076155.417 0.672
322748.037 3076155.304 0.662
322747.858 3076155.121 0.658
322747.716 3076154.906 0.645
322747.646 3076154.741 0.640
322747.499 3076154.556 0.639
322747.286 3076154.346 0.624
322747.119 3076154.206 0.620
322746.966 3076154.018 0.614
322746.827 3076153.814 0.611
322746.706 3076153.628 0.628
322746.535 3076153.492 0.638
322746.363 3076153.324 0.628
322746.180 3076153.178 0.630
322746.019 3076152.983 0.635
322745.928 3076152.826 0.638
322745.796 3076152.641 0.656
322745.607 3076152.487 0.665
322745.449 3076152.338 0.666
322745.275 3076152.203 0.677
322745.142 3076152.052 0.680
322745.042 3076151.878 0.671
322745.001 3076151.746 0.665
322744.884 3076151.594 0.651
322744.729 3076151.458 0.612
322744.561 3076151.344 0.566
322744.367 3076151.192 0.543
322744.234 3076151.052 0.537
322744.171 3076150.928 0.526
322744.064 3076150.769 0.505
322743.918 3076150.581 0.485
322743.775 3076150.455 0.474
322743.641 3076150.304 0.452
322743.456 3076150.157 0.429
322743.325 3076149.982 0.416
322743.205 3076149.812 0.401
322743.073 3076149.633 0.390
322742.919 3076149.455 0.386
322742.729 3076149.292 0.369
322742.572 3076149.172 0.357
322742.403 3076149.001 0.355
322742.253 3076148.813 0.347
322742.170 3076148.667 0.341
322742.016 3076148.476 0.338
322741.841 3076148.303 0.324
322741.688 3076148.162 0.310
322741.507 3076147.977 0.307
322741.356 3076147.768 0.299
322741.295 3076147.628 0.296
322741.146 3076147.431 0.298
322740.955 3076147.266 0.287
322740.808 3076147.108 0.268
322740.637 3076146.941 0.259
322740.500 3076146.749 0.248
322740.397 3076146.599 0.235
322740.243 3076146.411 0.229
322740.057 3076146.256 0.217
322739.904 3076146.099 0.196
322739.719 3076145.953 0.185
322739.568 3076145.778 0.175
322739.436 3076145.624 0.159
322739.301 3076145.466 0.149
322739.143 3076145.312 0.146
322738.955 3076145.195 0.130
322738.785 3076145.097 0.115
322738.620 3076144.977 0.109
322738.491 3076144.837 0.104
322738.363 3076144.694 0.093
322738.222 3076144.543 0.088
322738.057 3076144.410 0.084
322737.881 3076144.274 0.064
322737.734 3076144.166 0.050
322737.589 3076144.040 0.039
322737.445 3076143.868 0.024
322737.366 3076143.745 0.018
322737.220 3076143.575 0.016
322737.043 3076143.411 0.009
322736.914 3076143.295 0.002
322736.754 3076143.125 -0.004
322736.619 3076142.936 -0.015
322736.548 3076142.781 -0.022
322736.422 3076142.595 -0.024
322736.258 3076142.441 -0.032
322736.114 3076142.297 -0.046
322735.939 3076142.165 -0.049
322735.770 3076141.987 -0.052
322735.665 3076141.814 -0.063
322735.551 3076141.640 -0.067
322735.387 3076141.471 -0.075
322735.200 3076141.306 -0.094
322735.052 3076141.208 -0.098
322734.909 3076141.060 -0.098
322734.762 3076140.886 -0.104
322734.672 3076140.753 -0.104
322734.516 3076140.608 -0.099
322734.332 3076140.489 -0.106
322734.152 3076140.376 -0.120
322733.956 3076140.242 -0.124
322733.808 3076140.084 -0.129
322733.714 3076139.957 -0.133
322733.571 3076139.800 -0.132
322733.410 3076139.700 -0.135
322733.230 3076139.584 -0.149
322733.053 3076139.500 -0.158
322732.927 3076139.358 -0.165
322732.830 3076139.179 -0.171
322732.797 3076139.048 -0.173
322732.654 3076138.882 -0.175
322732.521 3076138.704 -0.182
322732.373 3076138.585 -0.184
322732.242 3076138.401 -0.188
322732.116 3076138.225 -0.200
322732.091 3076138.099 -0.205
322731.967 3076137.945 -0.214
322731.831 3076137.826 -0.226
322731.680 3076137.673 -0.242
322731.518 3076137.556 -0.250
322731.373 3076137.388 -0.253
322731.265 3076137.216 -0.262
322731.196 3076137.074 -0.268
322731.082 3076136.910 -0.274
322730.934 3076136.778 -0.289
322730.785 3076136.646 -0.310
322730.603 3076136.491 -0.325
322730.485 3076136.323 -0.337
322730.405 3076136.177 -0.347
322730.306 3076136.025 -0.353
322730.147 3076135.901 -0.358
322729.999 3076135.807 -0.365
322729.836 3076135.692 -0.369
322729.715 3076135.556 -0.373
322729.635 3076135.422 -0.378
322729.567 3076135.267 -0.386
322729.416 3076135.122 -0.398
322729.285 3076135.047 -0.406
322729.146 3076134.995 -0.412
322729.002 3076134.892 -0.419
322728.918 3076134.751 -0.430
322728.877 3076134.616 -0.442
322728.902 3076134.534 -0.444
322728.789 3076134.423 -0.449
322728.861 3076134.246 -0.450
322728.856 3076134.247 -0.450
322728.852 3076134.247 -0.450
322728.847 3076134.247 -0.450
322728.842 3076134.207 -0.450
322728.842 3076134.202 -0.450
322728.837 3076134.179 -0.450
322728.672 3076134.355 -0.450
322728.787 3076134.137 -0.450
322728.586 3076134.291 -0.450
322728.705 3076134.125 -0.450
322728.525 3076134.210 -0.450
322728.605 3076134.107 -0.450
322728.515 3076134.149 -0.449
322728.542 3076134.110 -0.449
322728.515 3076134.126 -0.449
322728.510 3076134.121 -0.449
322728.503 3076134.111 -0.449
