322917.842 3076028.955 2.222
322917.841 3076028.956 2.222
322917.840 3076028.956 2.222
322917.840 3076028.955 2.222
322917.840 3076028.946 2.222
322917.832 3076028.933 2.222
322917.821 3076028.914 2.223
322917.796 3076028.889 2.223
322917.734 3076028.842 2.223
322917.637 3076028.788 2.224
322917.514 3076028.742 2.229
322917.432 3076028.681 2.236
322917.323 3076028.588 2.245
322917.244 3076028.479 2.252
322917.204 3076028.365 2.255
322917.149 3076028.242 2.257
322917.070 3076028.118 2.263
322916.959 3076028.008 2.277
322916.828 3076027.908 2.296
322916.712 3076027.811 2.313
322916.619 3076027.691 2.330
322916.563 3076027.541 2.350
322916.502 3076027.387 2.374
322916.441 3076027.274 2.392
322916.337 3076027.178 2.413
322916.175 3076027.139 2.437
322916.008 3076027.050 2.475
322915.906 3076026.962 2.507
322915.851 3076026.854 2.535
322915.816 3076026.720 2.561
322915.775 3076026.629 2.577
322915.748 3076026.594 2.582
322915.714 3076026.565 2.587
322915.625 3076026.582 2.591
322915.572 3076026.573 2.592
322915.531 3076026.565 2.592
322915.501 3076026.529 2.591
322915.556 3076026.425 2.589
322915.507 3076026.478 2.589
322915.555 3076026.383 2.588
322915.497 3076026.364 2.580
322915.444 3076026.347 2.570
322915.417 3076026.334 2.562
322915.412 3076026.284 2.551
322915.477 3076026.204 2.550
322915.435 3076026.221 2.542
322915.440 3076026.179 2.532
322915.393 3076026.164 2.511
322915.340 3076026.146 2.482
322915.308 3076026.149 2.468
322915.249 3076026.165 2.447
322915.162 3076026.177 2.410
322915.143 3076026.158 2.393
322915.209 3076026.052 2.382
322915.161 3076026.106 2.381
322915.203 3076026.038 2.374
322915.130 3076026.120 2.372
322915.162 3076026.063 2.364
322915.035 3076026.100 2.319
322915.000 3076026.099 2.303
322914.984 3076026.101 2.296
322914.956 3076026.086 2.277
322914.962 3076026.047 2.265
322914.973 3076025.996 2.251
322915.018 3076025.927 2.245
322915.022 3076025.848 2.215
322915.040 3076025.794 2.201
322915.009 3076025.761 2.172
322914.943 3076025.755 2.136
322914.895 3076025.730 2.102
322914.834 3076025.679 2.057
322914.827 3076025.613 2.031
322914.827 3076025.561 2.014
322914.803 3076025.518 1.992
322914.754 3076025.515 1.976
322914.686 3076025.492 1.950
322914.637 3076025.460 1.931
322914.604 3076025.393 1.908
322914.590 3076025.334 1.893
322914.549 3076025.273 1.871
322914.515 3076025.224 1.855
322914.469 3076025.182 1.839
322914.401 3076025.133 1.819
322914.334 3076025.067 1.799
322914.267 3076024.984 1.778
322914.234 3076024.889 1.761
322914.267 3076024.804 1.756
322914.257 3076024.700 1.742
322914.255 3076024.617 1.731
322914.205 3076024.541 1.714
322914.155 3076024.509 1.702
322914.092 3076024.458 1.685
322914.037 3076024.382 1.667
322914.027 3076024.303 1.656
322913.981 3076024.212 1.641
322913.909 3076024.129 1.624
322913.819 3076024.070 1.609
322913.728 3076024.032 1.596
322913.632 3076023.979 1.583
322913.540 3076023.928 1.572
322913.466 3076023.843 1.560
322913.411 3076023.753 1.550
322913.349 3076023.665 1.539
322913.286 3076023.607 1.532
322913.244 3076023.571 1.529
322913.173 3076023.542 1.525
322913.109 3076023.489 1.521
322913.089 3076023.476 1.520
322913.070 3076023.482 1.519
322913.141 3076023.391 1.519
322913.067 3076023.479 1.519
322913.176 3076023.236 1.517
322913.173 3076023.093 1.515
322913.183 3076023.003 1.515
322913.116 3076022.972 1.516
322913.018 3076022.996 1.518
322912.937 3076023.051 1.518
322912.804 3076023.088 1.521
322912.678 3076023.147 1.523
322912.584 3076023.126 1.525
322912.561 3076023.077 1.525
322912.534 3076022.997 1.525
322912.465 3076022.956 1.523
322912.356 3076022.964 1.520
322912.235 3076023.010 1.517
322912.084 3076023.017 1.512
322911.966 3076022.999 1.508
322911.885 3076022.942 1.504
322911.893 3076022.861 1.503
322911.904 3076022.771 1.502
322911.837 3076022.660 1.500
322911.742 3076022.556 1.495
322911.622 3076022.471 1.490
322911.506 3076022.386 1.485
322911.395 3076022.257 1.478
322911.323 3076022.120 1.472
322911.322 3076022.026 1.469
322911.260 3076021.901 1.459
322911.173 3076021.792 1.446
322911.041 3076021.717 1.431
322910.904 3076021.658 1.419
322910.751 3076021.545 1.402
322910.660 3076021.431 1.391
322910.625 3076021.339 1.384
322910.524 3076021.230 1.372
322910.390 3076021.143 1.364
322910.227 3076021.058 1.364
322910.044 3076020.948 1.365
322909.918 3076020.828 1.353
322909.881 3076020.708 1.344
322909.838 3076020.612 1.334
322909.737 3076020.488 1.320
322909.591 3076020.383 1.311
322909.433 3076020.265 1.307
322909.305 3076020.160 1.298
322909.233 3076020.041 1.287
322909.197 3076019.952 1.281
322909.097 3076019.796 1.267
322908.989 3076019.676 1.257
322908.857 3076019.604 1.253
322908.707 3076019.487 1.248
322908.598 3076019.374 1.241
322908.553 3076019.250 1.235
322908.495 3076019.129 1.227
322908.411 3076019.008 1.218
322908.296 3076018.912 1.209
322908.194 3076018.821 1.199
322908.068 3076018.704 1.184
322907.993 3076018.581 1.174
322907.996 3076018.486 1.170
322907.903 3076018.339 1.159
322907.809 3076018.221 1.151
322907.669 3076018.124 1.147
322907.532 3076017.990 1.146
322907.411 3076017.878 1.140
322907.333 3076017.742 1.129
322907.278 3076017.655 1.120
322907.172 3076017.509 1.104
322907.031 3076017.409 1.093
322906.918 3076017.325 1.089
322906.771 3076017.207 1.085
322906.699 3076017.113 1.081
322906.639 3076016.998 1.076
322906.572 3076016.890 1.071
322906.476 3076016.775 1.063
322906.328 3076016.683 1.052
322906.187 3076016.595 1.040
322906.059 3076016.475 1.026
322905.980 3076016.366 1.016
322905.943 3076016.258 1.009
322905.869 3076016.155 1.001
322905.784 3076016.038 0.994
322905.654 3076015.927 0.990
322905.539 3076015.823 0.986
322905.416 3076015.690 0.979
322905.327 3076015.564 0.972
322905.254 3076015.461 0.964
322905.168 3076015.332 0.953
322905.066 3076015.226 0.944
322904.931 3076015.137 0.939
322904.780 3076015.024 0.939
322904.662 3076014.927 0.937
322904.585 3076014.802 0.933
322904.519 3076014.690 0.928
322904.425 3076014.575 0.922
322904.296 3076014.481 0.917
322904.160 3076014.390 0.913
322904.010 3076014.276 0.908
322903.890 3076014.148 0.899
322903.848 3076014.017 0.893
322903.752 3076013.875 0.883
322903.655 3076013.740 0.872
322903.500 3076013.623 0.863
322903.365 3076013.483 0.862
322903.216 3076013.368 0.858
322903.129 3076013.225 0.851
322903.064 3076013.117 0.848
322902.956 3076012.970 0.843
322902.808 3076012.856 0.835
322902.678 3076012.742 0.827
322902.504 3076012.593 0.823
322902.373 3076012.456 0.818
322902.282 3076012.324 0.816
322902.163 3076012.160 0.815
322902.047 3076012.045 0.813
322901.902 3076011.948 0.810
322901.741 3076011.812 0.811
322901.586 3076011.692 0.805
322901.493 3076011.561 0.796
322901.415 3076011.442 0.790
322901.297 3076011.297 0.781
322901.136 3076011.178 0.771
322900.992 3076011.073 0.765
322900.837 3076010.960 0.755
322900.736 3076010.829 0.742
322900.681 3076010.706 0.733
322900.562 3076010.553 0.719
322900.421 3076010.442 0.708
322900.307 3076010.332 0.703
322900.134 3076010.188 0.702
322900.006 3076010.042 0.694
322899.917 3076009.908 0.685
322899.802 3076009.755 0.672
322899.673 3076009.614 0.656
322899.520 3076009.497 0.641
322899.352 3076009.326 0.630
322899.222 3076009.188 0.615
322899.111 3076009.046 0.597
322898.971 3076008.879 0.584
322898.822 3076008.734 0.581
322898.669 3076008.602 0.588
322898.484 3076008.437 0.604
322898.329 3076008.287 0.607
322898.250 3076008.163 0.609
322898.148 3076008.020 0.613
322898.018 3076007.891 0.616
322897.867 3076007.771 0.626
322897.691 3076007.635 0.651
322897.547 3076007.521 0.661
322897.444 3076007.383 0.662
322897.402 3076007.240 0.663
322897.285 3076007.084 0.667
322897.140 3076006.947 0.667
322896.987 3076006.837 0.671
322896.829 3076006.719 0.682
322896.703 3076006.621 0.686
322896.597 3076006.481 0.685
322896.558 3076006.370 0.686
322896.436 3076006.222 0.690
322896.300 3076006.088 0.687
322896.144 3076005.970 0.679
322895.998 3076005.819 0.673
322895.854 3076005.696 0.652
322895.741 3076005.554 0.622
322895.642 3076005.421 0.598
322895.518 3076005.282 0.570
322895.312 3076005.142 0.540
322895.110 3076004.988 0.523
322894.949 3076004.815 0.492
322894.862 3076004.677 0.471
322894.716 3076004.506 0.443
322894.550 3076004.381 0.418
322894.397 3076004.213 0.405
322894.249 3076004.060 0.392
322894.164 3076003.905 0.376
322894.072 3076003.754 0.361
322893.927 3076003.607 0.339
322893.779 3076003.479 0.324
322893.613 3076003.317 0.313
322893.501 3076003.147 0.301
322893.411 3076002.991 0.290
322893.307 3076002.816 0.279
322893.157 3076002.667 0.266
322893.016 3076002.503 0.259
322892.818 3076002.290 0.250
322892.691 3076002.097 0.232
322892.576 3076001.945 0.222
322892.437 3076001.759 0.207
322892.253 3076001.625 0.191
322892.077 3076001.480 0.187
322891.894 3076001.328 0.170
322891.756 3076001.176 0.153
322891.631 3076001.022 0.143
322891.457 3076000.888 0.129
322891.271 3076000.752 0.123
322891.049 3076000.589 0.125
322890.909 3076000.439 0.112
322890.789 3076000.309 0.099
322890.680 3076000.156 0.088
322890.518 3076000.030 0.077
322890.371 3075999.914 0.071
322890.185 3075999.785 0.066
322890.050 3075999.635 0.057
322889.942 3075999.506 0.052
322889.790 3075999.343 0.046
322889.609 3075999.208 0.038
322889.431 3075999.084 0.040
322889.208 3075998.943 0.039
322889.044 3075998.782 0.022
322888.947 3075998.661 0.013
322888.783 3075998.475 -0.001
322888.603 3075998.333 -0.015
322888.467 3075998.209 -0.018
322888.284 3075998.063 -0.026
322888.159 3075997.907 -0.039
322888.080 3075997.802 -0.044
322887.946 3075997.644 -0.050
322887.790 3075997.521 -0.053
322887.642 3075997.412 -0.051
322887.454 3075997.277 -0.050
322887.312 3075997.136 -0.061
322887.232 3075997.043 -0.068
322887.111 3075996.903 -0.080
322886.963 3075996.778 -0.090
322886.823 3075996.670 -0.092
322886.654 3075996.531 -0.090
322886.521 3075996.415 -0.095
322886.418 3075996.299 -0.101
322886.305 3075996.169 -0.104
322886.170 3075996.038 -0.108
322886.020 3075995.933 -0.110
322885.858 3075995.814 -0.108
322885.690 3075995.710 -0.112
322885.595 3075995.577 -0.118
322885.523 3075995.461 -0.122
322885.423 3075995.331 -0.129
322885.279 3075995.224 -0.135
322885.144 3075995.162 -0.137
322884.998 3075995.051 -0.139
322884.900 3075994.959 -0.142
322884.840 3075994.848 -0.146
322884.813 3075994.720 -0.149
322884.672 3075994.603 -0.155
322884.506 3075994.507 -0.160
322884.341 3075994.419 -0.162
322884.183 3075994.292 -0.166
322884.088 3075994.175 -0.172
322884.061 3075994.044 -0.177
322884.056 3075993.916 -0.180
322884.004 3075993.759 -0.188
322883.911 3075993.619 -0.196
322883.807 3075993.493 -0.200
322883.695 3075993.322 -0.203
322883.612 3075993.184 -0.208
322883.589 3075993.056 -0.212
322883.583 3075992.936 -0.217
322883.551 3075992.792 -0.224
322883.473 3075992.656 -0.231
322883.385 3075992.530 -0.236
322883.270 3075992.371 -0.247
322883.187 3075992.219 -0.256
322883.172 3075992.096 -0.261
322883.118 3075991.915 -0.269
322883.039 3075991.779 -0.274
322882.918 3075991.690 -0.278
322882.785 3075991.564 -0.285
322882.669 3075991.468 -0.293
322882.584 3075991.343 -0.300
322882.542 3075991.225 -0.306
322882.440 3075991.079 -0.315
322882.335 3075990.973 -0.323
322882.211 3075990.880 -0.330
322882.045 3075990.748 -0.340
322881.931 3075990.611 -0.348
322881.923 3075990.483 -0.351
322881.870 3075990.310 -0.358
322881.785 3075990.163 -0.365
322881.684 3075990.049 -0.370
322881.545 3075989.892 -0.378
322881.439 3075989.759 -0.386
322881.417 3075989.641 -0.391
322881.385 3075989.512 -0.398
322881.346 3075989.394 -0.405
322881.241 3075989.302 -0.412
322881.127 3075989.219 -0.414
322881.026 3075989.103 -0.412
322880.981 3075988.994 -0.412
322881.075 3075988.820 -0.412
322881.106 3075988.739 -0.412
322880.982 3075988.885 -0.412
322881.074 3075988.654 -0.413
322880.835 3075988.762 -0.414
322880.816 3075988.775 -0.414
322880.973 3075988.584 -0.414
322880.791 3075988.796 -0.414
322880.786 3075988.767 -0.414
