323034.267 3075922.508 1.894
323034.268 3075922.506 1.894
323034.273 3075922.454 1.893
323034.209 3075922.426 1.890
323034.119 3075922.399 1.883
323034.015 3075922.359 1.869
323033.908 3075922.329 1.852
323033.828 3075922.280 1.834
323033.804 3075922.214 1.823
323033.834 3075922.129 1.818
323033.779 3075922.017 1.798
323033.723 3075921.925 1.781
323033.634 3075921.863 1.764
323033.536 3075921.812 1.752
323033.447 3075921.743 1.743
323033.399 3075921.654 1.735
323033.423 3075921.583 1.732
323033.387 3075921.479 1.724
323033.330 3075921.407 1.717
323033.228 3075921.395 1.710
323033.095 3075921.362 1.699
323032.984 3075921.303 1.688
323032.923 3075921.223 1.679
323032.923 3075921.124 1.673
323032.898 3075921.024 1.664
323032.830 3075920.939 1.651
323032.760 3075920.868 1.640
323032.668 3075920.835 1.630
323032.580 3075920.778 1.620
323032.467 3075920.708 1.607
323032.404 3075920.630 1.597
323032.369 3075920.554 1.590
323032.293 3075920.474 1.578
323032.223 3075920.401 1.566
323032.118 3075920.347 1.554
323032.006 3075920.287 1.546
323031.877 3075920.198 1.542
323031.779 3075920.106 1.542
323031.763 3075920.003 1.542
323031.737 3075919.916 1.541
323031.698 3075919.834 1.539
323031.631 3075919.748 1.534
323031.520 3075919.682 1.527
323031.387 3075919.615 1.520
323031.252 3075919.516 1.516
323031.159 3075919.425 1.515
323031.126 3075919.321 1.513
323031.035 3075919.207 1.505
323030.955 3075919.099 1.496
323030.825 3075919.032 1.486
323030.680 3075918.934 1.476
323030.516 3075918.828 1.472
323030.472 3075918.730 1.471
323030.441 3075918.650 1.470
323030.415 3075918.563 1.468
323030.346 3075918.469 1.464
323030.240 3075918.397 1.458
323030.128 3075918.332 1.449
323029.969 3075918.231 1.436
323029.883 3075918.124 1.431
323029.859 3075918.034 1.429
323029.773 3075917.914 1.425
323029.689 3075917.809 1.420
323029.565 3075917.719 1.417
323029.438 3075917.652 1.417
323029.296 3075917.551 1.424
323029.204 3075917.461 1.432
323029.131 3075917.344 1.439
323029.072 3075917.237 1.441
323028.993 3075917.131 1.440
323028.875 3075917.051 1.433
323028.767 3075916.995 1.421
323028.649 3075916.914 1.406
323028.579 3075916.815 1.397
323028.549 3075916.730 1.392
323028.462 3075916.626 1.387
323028.387 3075916.556 1.384
323028.284 3075916.489 1.383
323028.163 3075916.441 1.381
323028.041 3075916.362 1.375
323027.941 3075916.279 1.368
323027.871 3075916.189 1.361
323027.822 3075916.086 1.355
323027.724 3075915.961 1.345
323027.618 3075915.855 1.334
323027.475 3075915.761 1.322
323027.343 3075915.674 1.312
323027.188 3075915.556 1.299
323027.107 3075915.445 1.289
323027.068 3075915.347 1.281
323026.964 3075915.228 1.270
323026.864 3075915.134 1.263
323026.732 3075915.036 1.261
323026.612 3075914.933 1.263
323026.454 3075914.822 1.259
323026.362 3075914.691 1.248
323026.318 3075914.565 1.239
323026.189 3075914.395 1.224
323026.043 3075914.256 1.213
323025.885 3075914.139 1.207
323025.719 3075913.981 1.206
323025.577 3075913.871 1.194
323025.490 3075913.743 1.179
323025.381 3075913.616 1.166
323025.220 3075913.475 1.151
323025.050 3075913.363 1.147
323024.889 3075913.233 1.149
323024.736 3075913.121 1.140
323024.650 3075912.993 1.126
323024.530 3075912.888 1.112
323024.399 3075912.747 1.098
323024.242 3075912.651 1.087
323024.114 3075912.536 1.079
323023.942 3075912.401 1.063
323023.856 3075912.263 1.050
323023.765 3075912.153 1.040
323023.647 3075912.008 1.029
323023.503 3075911.917 1.023
323023.392 3075911.816 1.020
323023.228 3075911.695 1.013
323023.132 3075911.563 1.005
323023.053 3075911.450 0.999
323022.906 3075911.278 0.994
323022.778 3075911.150 0.987
323022.628 3075911.050 0.979
323022.484 3075910.915 0.969
323022.358 3075910.808 0.958
323022.295 3075910.689 0.949
323022.202 3075910.579 0.939
323022.091 3075910.471 0.934
323021.945 3075910.380 0.935
323021.825 3075910.287 0.938
323021.687 3075910.204 0.938
323021.578 3075910.105 0.933
323021.525 3075910.000 0.928
323021.470 3075909.905 0.922
323021.345 3075909.797 0.913
323021.183 3075909.707 0.907
323021.032 3075909.615 0.905
323020.868 3075909.517 0.899
323020.766 3075909.410 0.892
323020.733 3075909.308 0.889
323020.647 3075909.184 0.887
323020.558 3075909.075 0.886
323020.417 3075908.986 0.885
323020.283 3075908.935 0.881
323020.136 3075908.828 0.873
323020.036 3075908.715 0.866
323019.992 3075908.596 0.861
323019.966 3075908.496 0.856
323019.858 3075908.380 0.849
323019.708 3075908.278 0.842
323019.551 3075908.184 0.839
323019.382 3075908.068 0.835
323019.256 3075907.963 0.825
323019.193 3075907.832 0.818
323019.109 3075907.724 0.810
323019.000 3075907.595 0.804
323018.858 3075907.491 0.801
323018.720 3075907.382 0.804
323018.547 3075907.248 0.807
323018.420 3075907.110 0.800
323018.339 3075906.990 0.795
323018.218 3075906.830 0.791
323018.080 3075906.704 0.789
323017.915 3075906.617 0.790
323017.739 3075906.488 0.795
323017.607 3075906.362 0.792
323017.554 3075906.224 0.789
323017.454 3075906.074 0.786
323017.349 3075905.931 0.781
323017.202 3075905.832 0.776
323017.073 3075905.699 0.770
323016.969 3075905.578 0.766
323016.934 3075905.443 0.761
323016.894 3075905.309 0.755
323016.825 3075905.162 0.746
323016.723 3075905.027 0.736
323016.615 3075904.930 0.729
323016.511 3075904.792 0.719
323016.446 3075904.650 0.711
323016.425 3075904.510 0.706
323016.371 3075904.350 0.701
323016.319 3075904.188 0.698
323016.243 3075904.047 0.699
323016.158 3075903.878 0.695
323016.063 3075903.717 0.683
323016.019 3075903.581 0.672
323015.992 3075903.436 0.659
323015.931 3075903.255 0.641
323015.826 3075903.094 0.630
323015.726 3075902.938 0.625
323015.622 3075902.806 0.618
323015.582 3075902.681 0.612
323015.525 3075902.558 0.606
323015.438 3075902.423 0.607
323015.317 3075902.310 0.619
323015.211 3075902.244 0.630
323015.103 3075902.156 0.640
323015.008 3075902.049 0.646
323014.962 3075901.917 0.650
323014.892 3075901.793 0.655
323014.832 3075901.649 0.659
323014.725 3075901.506 0.662
323014.595 3075901.372 0.670
323014.467 3075901.226 0.688
323014.338 3075901.131 0.699
323014.244 3075900.988 0.704
323014.205 3075900.859 0.707
323014.133 3075900.685 0.713
323014.026 3075900.531 0.715
323013.882 3075900.424 0.713
323013.744 3075900.297 0.710
323013.630 3075900.196 0.706
323013.557 3075900.063 0.701
323013.474 3075899.950 0.694
323013.374 3075899.817 0.683
323013.249 3075899.700 0.666
323013.132 3075899.588 0.646
323012.966 3075899.442 0.610
323012.855 3075899.292 0.580
323012.778 3075899.181 0.561
323012.641 3075899.026 0.529
323012.484 3075898.924 0.506
323012.347 3075898.797 0.491
323012.191 3075898.667 0.473
323012.087 3075898.526 0.455
323011.970 3075898.415 0.441
323011.823 3075898.283 0.422
323011.668 3075898.181 0.413
323011.502 3075898.045 0.408
323011.371 3075897.913 0.397
323011.304 3075897.789 0.383
323011.195 3075897.648 0.364
323011.073 3075897.524 0.349
323010.937 3075897.406 0.341
323010.766 3075897.255 0.330
323010.663 3075897.123 0.319
323010.589 3075897.017 0.309
323010.498 3075896.886 0.295
323010.380 3075896.776 0.285
323010.283 3075896.664 0.281
323010.159 3075896.537 0.281
323010.069 3075896.418 0.282
323009.995 3075896.293 0.281
323009.915 3075896.169 0.278
323009.813 3075896.048 0.273
323009.687 3075895.944 0.268
323009.563 3075895.829 0.262
323009.402 3075895.696 0.253
323009.305 3075895.555 0.241
323009.234 3075895.454 0.229
323009.126 3075895.315 0.210
323008.985 3075895.198 0.196
323008.850 3075895.077 0.195
323008.658 3075894.941 0.199
323008.522 3075894.795 0.193
323008.439 3075894.669 0.187
323008.327 3075894.516 0.176
323008.190 3075894.390 0.165
323008.055 3075894.289 0.159
323007.878 3075894.152 0.144
323007.757 3075894.007 0.127
323007.682 3075893.908 0.118
323007.584 3075893.774 0.111
323007.446 3075893.659 0.113
323007.309 3075893.541 0.121
323007.151 3075893.423 0.124
323007.038 3075893.297 0.118
323006.980 3075893.191 0.114
323006.869 3075893.058 0.105
323006.738 3075892.939 0.096
323006.619 3075892.845 0.093
323006.476 3075892.723 0.091
323006.348 3075892.630 0.087
323006.246 3075892.506 0.077
323006.164 3075892.402 0.068
323006.046 3075892.272 0.058
323005.907 3075892.163 0.050
323005.771 3075892.052 0.049
323005.575 3075891.925 0.049
323005.429 3075891.789 0.040
323005.349 3075891.662 0.033
323005.224 3075891.506 0.024
323005.086 3075891.378 0.016
323004.956 3075891.279 0.013
323004.784 3075891.158 0.010
323004.652 3075891.038 0.003
323004.584 3075890.917 -0.003
323004.486 3075890.791 -0.011
323004.360 3075890.681 -0.016
323004.213 3075890.587 -0.016
323004.061 3075890.480 -0.011
323003.923 3075890.384 -0.011
323003.826 3075890.253 -0.015
323003.738 3075890.130 -0.019
323003.615 3075890.004 -0.023
323003.474 3075889.898 -0.027
323003.350 3075889.808 -0.029
323003.208 3075889.697 -0.035
323003.102 3075889.582 -0.043
323003.044 3075889.455 -0.051
323002.979 3075889.328 -0.059
323002.877 3075889.203 -0.065
323002.756 3075889.084 -0.066
323002.621 3075888.959 -0.063
323002.478 3075888.828 -0.065
323002.413 3075888.695 -0.070
323002.395 3075888.580 -0.073
323002.343 3075888.434 -0.078
323002.254 3075888.296 -0.082
323002.145 3075888.195 -0.083
323002.023 3075888.075 -0.090
323001.919 3075887.952 -0.100
323001.875 3075887.833 -0.106
323001.808 3075887.708 -0.114
323001.700 3075887.569 -0.120
323001.557 3075887.447 -0.119
323001.435 3075887.332 -0.116
323001.293 3075887.226 -0.119
323001.189 3075887.094 -0.127
323001.138 3075886.990 -0.133
323000.994 3075886.842 -0.143
323000.841 3075886.732 -0.149
323000.694 3075886.658 -0.149
323000.518 3075886.552 -0.148
323000.404 3075886.434 -0.153
323000.354 3075886.322 -0.158
323000.267 3075886.206 -0.167
323000.160 3075886.089 -0.177
323000.023 3075885.967 -0.187
322999.883 3075885.835 -0.192
322999.720 3075885.692 -0.201
322999.629 3075885.541 -0.209
322999.594 3075885.422 -0.213
322999.506 3075885.268 -0.219
322999.399 3075885.136 -0.228
322999.270 3075885.010 -0.238
322999.154 3075884.847 -0.251
322999.069 3075884.720 -0.259
322999.053 3075884.640 -0.263
322999.007 3075884.524 -0.269
322998.901 3075884.417 -0.273
322998.762 3075884.343 -0.268
322998.624 3075884.270 -0.265
322998.546 3075884.164 -0.265
322998.552 3075884.068 -0.266
322998.448 3075883.953 -0.272
322998.309 3075883.862 -0.281
322998.152 3075883.808 -0.288
322997.997 3075883.708 -0.295
322997.889 3075883.613 -0.301
322997.861 3075883.484 -0.305
322997.824 3075883.364 -0.309
322997.729 3075883.248 -0.316
322997.609 3075883.150 -0.324
322997.524 3075883.062 -0.330
322997.397 3075882.968 -0.338
322997.275 3075882.861 -0.345
322997.175 3075882.723 -0.349
322997.088 3075882.559 -0.355
322997.000 3075882.451 -0.364
322996.887 3075882.452 -0.374
322996.769 3075882.375 -0.395
322996.708 3075882.288 -0.402
322996.757 3075882.199 -0.403
322996.733 3075882.111 -0.405
322996.660 3075882.116 -0.406
322996.668 3075882.093 -0.406
322996.684 3075882.056 -0.407
322996.651 3075882.083 -0.407
322996.630 3075882.079 -0.407
322996.622 3075882.087 -0.407
322996.599 3075882.112 -0.407
322996.585 3075882.108 -0.407
322996.625 3075882.060 -0.407
322996.615 3075882.070 -0.407
322996.625 3075882.057 -0.407
322996.619 3075882.062 -0.407
322996.624 3075882.055 -0.407
322996.613 3075882.061 -0.407
322996.606 3075882.041 -0.407
322996.612 3075882.007 -0.408
322996.615 3075881.977 -0.408
322996.619 3075881.940 -0.408
322996.621 3075881.932 -0.408
322996.607 3075881.947 -0.408
322996.613 3075881.931 -0.408
