322988.721 3075971.012 2.201
322988.677 3075970.989 2.201
322988.743 3075970.901 2.201
322988.661 3075970.952 2.202
322988.270 3075971.381 2.203
322988.626 3075970.915 2.204
322988.354 3075971.235 2.205
322988.183 3075971.402 2.206
322988.678 3075970.807 2.206
322988.565 3075970.928 2.206
322988.202 3075971.357 2.207
322988.504 3075970.991 2.206
322988.413 3075971.091 2.202
322988.081 3075971.406 2.199
322988.090 3075971.395 2.195
322988.157 3075971.309 2.192
322988.087 3075971.389 2.190
322988.084 3075971.381 2.183
322988.051 3075971.411 2.174
322988.079 3075971.372 2.173
322988.066 3075971.383 2.170
322988.066 3075971.367 2.165
322988.053 3075971.374 2.159
322988.101 3075971.308 2.153
322988.591 3075970.723 2.144
322988.055 3075971.361 2.128
322988.018 3075971.405 2.107
322988.051 3075971.365 2.094
322987.996 3075971.393 2.085
322987.987 3075971.358 2.078
322988.508 3075970.659 2.072
322988.447 3075970.603 2.059
322988.428 3075970.543 2.044
322988.454 3075970.475 2.042
322988.497 3075970.418 2.056
322988.460 3075970.327 2.064
322988.369 3075970.249 2.061
322988.280 3075970.164 2.054
322988.198 3075970.142 2.044
322988.162 3075970.049 2.028
322988.169 3075969.951 2.011
322988.186 3075969.867 1.995
322988.125 3075969.740 1.990
322988.006 3075969.632 1.990
322987.869 3075969.581 1.982
322987.751 3075969.534 1.971
322987.662 3075969.481 1.959
322987.622 3075969.407 1.950
322987.599 3075969.325 1.929
322987.583 3075969.231 1.909
322987.513 3075969.128 1.897
322987.400 3075969.050 1.886
322987.286 3075968.998 1.874
322987.183 3075968.942 1.865
322987.120 3075968.856 1.858
322987.102 3075968.771 1.848
322987.021 3075968.630 1.834
322986.934 3075968.486 1.824
322986.797 3075968.353 1.817
322986.650 3075968.289 1.812
322986.476 3075968.258 1.804
322986.365 3075968.221 1.798
322986.316 3075968.161 1.787
322986.294 3075968.063 1.773
322986.290 3075967.915 1.751
322986.263 3075967.784 1.741
322986.193 3075967.660 1.735
322986.100 3075967.588 1.729
322985.963 3075967.511 1.709
322985.836 3075967.422 1.689
322985.750 3075967.336 1.677
322985.690 3075967.221 1.667
322985.701 3075967.099 1.654
322985.604 3075966.955 1.648
322985.449 3075966.848 1.642
322985.290 3075966.779 1.637
322985.167 3075966.709 1.636
322985.077 3075966.585 1.636
322985.025 3075966.445 1.633
322984.950 3075966.325 1.629
322984.806 3075966.223 1.631
322984.641 3075966.140 1.629
322984.486 3075966.070 1.625
322984.357 3075965.992 1.615
322984.282 3075965.908 1.603
322984.239 3075965.782 1.594
322984.216 3075965.670 1.584
322984.136 3075965.572 1.565
322984.011 3075965.518 1.554
322983.817 3075965.441 1.544
322983.653 3075965.388 1.531
322983.556 3075965.313 1.521
322983.507 3075965.232 1.509
322983.419 3075965.079 1.497
322983.334 3075964.945 1.492
322983.208 3075964.800 1.489
322983.035 3075964.705 1.485
322982.841 3075964.595 1.474
322982.678 3075964.493 1.470
322982.563 3075964.352 1.471
322982.480 3075964.200 1.471
322982.446 3075964.076 1.477
322982.362 3075963.945 1.475
322982.231 3075963.845 1.468
322982.077 3075963.716 1.463
322981.944 3075963.624 1.459
322981.835 3075963.515 1.448
322981.807 3075963.417 1.434
322981.750 3075963.270 1.428
322981.683 3075963.115 1.419
322981.571 3075962.972 1.413
322981.460 3075962.862 1.412
322981.315 3075962.692 1.414
322981.180 3075962.548 1.407
322981.082 3075962.398 1.400
322981.005 3075962.259 1.397
322980.977 3075962.112 1.394
322980.898 3075961.952 1.392
322980.747 3075961.836 1.392
322980.589 3075961.751 1.387
322980.470 3075961.699 1.373
322980.387 3075961.587 1.371
322980.248 3075961.409 1.367
322980.128 3075961.259 1.360
322979.953 3075961.119 1.354
322979.773 3075960.983 1.351
322979.611 3075960.869 1.347
322979.493 3075960.739 1.339
322979.405 3075960.597 1.335
322979.345 3075960.455 1.332
322979.242 3075960.311 1.325
322979.092 3075960.168 1.321
322978.934 3075960.016 1.317
322978.791 3075959.868 1.315
322978.680 3075959.698 1.313
322978.622 3075959.524 1.309
322978.564 3075959.385 1.299
322978.438 3075959.233 1.287
322978.285 3075959.082 1.266
322978.142 3075958.955 1.251
322978.004 3075958.797 1.248
322977.919 3075958.633 1.241
322977.862 3075958.499 1.234
322977.787 3075958.339 1.230
322977.641 3075958.207 1.227
322977.486 3075958.030 1.211
322977.357 3075957.914 1.197
322977.268 3075957.769 1.188
322977.211 3075957.615 1.179
322977.160 3075957.449 1.166
322977.070 3075957.281 1.155
322976.954 3075957.175 1.147
322976.820 3075957.041 1.136
322976.692 3075956.912 1.120
322976.605 3075956.754 1.112
322976.515 3075956.565 1.103
322976.460 3075956.383 1.090
322976.299 3075956.205 1.083
322976.150 3075956.093 1.081
322976.014 3075955.985 1.071
322975.939 3075955.823 1.052
322975.840 3075955.659 1.040
322975.711 3075955.481 1.032
322975.511 3075955.322 1.024
322975.321 3075955.201 1.021
322975.162 3075955.089 1.020
322975.038 3075954.953 1.013
322974.952 3075954.794 0.994
322974.881 3075954.670 0.984
322974.734 3075954.558 0.980
322974.557 3075954.436 0.973
322974.404 3075954.302 0.966
322974.267 3075954.198 0.963
322974.191 3075954.096 0.958
322974.106 3075953.967 0.944
322974.026 3075953.841 0.940
322973.881 3075953.714 0.936
322973.719 3075953.602 0.928
322973.544 3075953.478 0.924
322973.390 3075953.369 0.923
322973.290 3075953.234 0.916
322973.184 3075953.067 0.905
322973.120 3075952.929 0.901
322972.993 3075952.795 0.893
322972.832 3075952.699 0.883
322972.649 3075952.606 0.880
322972.477 3075952.527 0.876
322972.345 3075952.409 0.856
322972.209 3075952.257 0.851
322972.161 3075952.134 0.849
322972.017 3075951.994 0.841
322971.867 3075951.911 0.835
322971.689 3075951.775 0.833
322971.502 3075951.643 0.825
322971.358 3075951.514 0.805
322971.273 3075951.382 0.795
322971.173 3075951.258 0.786
322971.065 3075951.129 0.776
322970.910 3075951.018 0.773
322970.737 3075950.877 0.771
322970.568 3075950.764 0.759
322970.438 3075950.632 0.749
322970.326 3075950.486 0.743
322970.280 3075950.362 0.734
322970.149 3075950.198 0.728
322969.981 3075950.058 0.725
322969.795 3075949.940 0.720
322969.638 3075949.813 0.700
322969.539 3075949.668 0.680
322969.429 3075949.499 0.670
322969.377 3075949.364 0.661
322969.229 3075949.224 0.653
322969.028 3075949.059 0.649
322968.857 3075948.951 0.641
322968.712 3075948.808 0.624
322968.588 3075948.643 0.621
322968.502 3075948.506 0.619
322968.360 3075948.345 0.618
322968.204 3075948.233 0.626
322968.035 3075948.070 0.634
322967.878 3075947.927 0.638
322967.757 3075947.777 0.647
322967.657 3075947.613 0.660
322967.601 3075947.467 0.672
322967.455 3075947.316 0.683
322967.278 3075947.162 0.700
322967.100 3075947.046 0.706
322966.946 3075946.891 0.710
322966.827 3075946.717 0.714
322966.770 3075946.554 0.714
322966.670 3075946.394 0.717
322966.518 3075946.261 0.727
322966.357 3075946.125 0.731
322966.178 3075945.998 0.728
322966.024 3075945.858 0.732
322965.914 3075945.713 0.731
322965.847 3075945.548 0.725
322965.737 3075945.396 0.706
322965.566 3075945.273 0.682
322965.383 3075945.114 0.665
322965.181 3075944.978 0.651
322965.068 3075944.831 0.626
322964.958 3075944.650 0.589
322964.876 3075944.492 0.571
322964.737 3075944.358 0.559
322964.551 3075944.206 0.539
322964.398 3075944.095 0.518
322964.247 3075943.958 0.507
322964.135 3075943.794 0.492
322964.072 3075943.657 0.461
322963.940 3075943.504 0.434
322963.751 3075943.345 0.420
322963.600 3075943.251 0.408
322963.453 3075943.107 0.393
322963.319 3075942.919 0.384
322963.281 3075942.798 0.381
322963.155 3075942.645 0.368
322962.985 3075942.519 0.348
322962.815 3075942.390 0.336
322962.669 3075942.282 0.326
322962.571 3075942.189 0.316
322962.508 3075942.092 0.311
322962.420 3075941.937 0.308
322962.314 3075941.775 0.301
322962.182 3075941.628 0.288
322962.061 3075941.554 0.280
322961.947 3075941.436 0.271
322961.782 3075941.286 0.260
322961.651 3075941.157 0.253
322961.576 3075941.051 0.248
322961.480 3075940.923 0.238
322961.378 3075940.776 0.215
322961.258 3075940.650 0.205
322961.112 3075940.547 0.200
322960.958 3075940.416 0.194
322960.786 3075940.285 0.191
322960.652 3075940.157 0.187
322960.560 3075940.033 0.179
322960.458 3075939.889 0.159
322960.348 3075939.751 0.149
322960.221 3075939.632 0.144
322960.068 3075939.524 0.134
322959.896 3075939.414 0.123
322959.751 3075939.305 0.115
322959.644 3075939.183 0.105
322959.551 3075939.025 0.085
322959.516 3075938.895 0.074
322959.399 3075938.749 0.066
322959.264 3075938.637 0.057
322959.129 3075938.494 0.051
322958.999 3075938.359 0.044
322958.880 3075938.214 0.036
322958.789 3075938.055 0.020
322958.730 3075937.918 0.009
322958.626 3075937.786 0.001
322958.492 3075937.685 -0.006
322958.314 3075937.550 -0.010
322958.151 3075937.445 -0.013
322958.000 3075937.321 -0.021
322957.881 3075937.187 -0.038
322957.824 3075937.064 -0.046
322957.729 3075936.931 -0.055
322957.582 3075936.820 -0.067
322957.406 3075936.687 -0.070
322957.243 3075936.597 -0.070
322957.102 3075936.472 -0.084
322956.983 3075936.330 -0.094
322956.880 3075936.181 -0.098
322956.750 3075936.040 -0.099
322956.609 3075935.930 -0.095
322956.428 3075935.800 -0.085
322956.264 3075935.681 -0.085
322956.123 3075935.558 -0.086
322956.019 3075935.430 -0.085
322955.959 3075935.313 -0.087
322955.850 3075935.175 -0.086
322955.699 3075935.058 -0.079
322955.532 3075934.928 -0.080
322955.384 3075934.816 -0.087
322955.241 3075934.680 -0.085
322955.121 3075934.539 -0.085
322955.047 3075934.430 -0.088
322954.920 3075934.290 -0.086
322954.745 3075934.176 -0.089
322954.579 3075934.032 -0.108
322954.418 3075933.914 -0.115
322954.276 3075933.766 -0.118
322954.153 3075933.585 -0.126
322954.064 3075933.454 -0.128
322953.892 3075933.294 -0.124
322953.701 3075933.135 -0.135
322953.540 3075933.004 -0.144
322953.380 3075932.860 -0.153
322953.236 3075932.679 -0.161
322953.167 3075932.542 -0.168
322953.006 3075932.396 -0.172
322952.806 3075932.255 -0.180
322952.657 3075932.146 -0.198
322952.510 3075932.009 -0.213
322952.385 3075931.827 -0.226
322952.315 3075931.694 -0.238
322952.188 3075931.545 -0.247
322952.016 3075931.408 -0.252
322951.865 3075931.273 -0.254
322951.707 3075931.130 -0.258
322951.580 3075930.984 -0.264
322951.478 3075930.851 -0.269
322951.342 3075930.704 -0.276
322951.177 3075930.583 -0.282
322950.991 3075930.431 -0.285
322950.818 3075930.327 -0.289
322950.654 3075930.194 -0.295
322950.518 3075930.020 -0.307
322950.416 3075929.878 -0.320
322950.228 3075929.728 -0.330
322950.008 3075929.597 -0.335
322949.851 3075929.514 -0.337
322949.698 3075929.382 -0.339
322949.590 3075929.237 -0.340
322949.522 3075929.088 -0.341
322949.455 3075928.965 -0.341
