322900.712 3076046.423 2.455
322900.647 3076046.500 2.455
322900.656 3076046.488 2.455
322900.634 3076046.498 2.455
322900.656 3076046.469 2.455
322900.646 3076046.451 2.456
322900.640 3076046.458 2.456
322900.590 3076046.514 2.456
322900.590 3076046.510 2.456
322900.601 3076046.496 2.456
322900.593 3076046.505 2.456
322900.595 3076046.499 2.456
322900.618 3076046.471 2.456
322900.595 3076046.491 2.456
322900.592 3076046.489 2.456
322900.635 3076046.436 2.456
322900.588 3076046.492 2.456
322900.618 3076046.454 2.456
322900.608 3076046.461 2.456
322900.584 3076046.488 2.456
322900.583 3076046.486 2.456
322900.577 3076046.486 2.456
322900.598 3076046.460 2.456
322900.577 3076046.484 2.456
322900.621 3076046.430 2.456
322900.586 3076046.459 2.456
322900.580 3076046.465 2.456
322900.610 3076046.429 2.456
322900.577 3076046.466 2.456
322900.576 3076046.466 2.456
322900.714 3076046.219 2.456
322900.595 3076045.952 2.465
322900.389 3076045.784 2.511
322900.241 3076045.673 2.512
322900.150 3076045.589 2.510
322900.112 3076045.505 2.508
322900.066 3076045.426 2.505
322899.964 3076045.369 2.500
322899.855 3076045.331 2.491
322899.737 3076045.295 2.480
322899.655 3076045.220 2.470
322899.609 3076045.116 2.463
322899.603 3076045.036 2.459
322899.512 3076044.931 2.447
322899.372 3076044.836 2.431
322899.263 3076044.732 2.422
322899.138 3076044.658 2.419
322899.062 3076044.557 2.431
322899.005 3076044.417 2.461
322898.931 3076044.337 2.487
322898.896 3076044.230 2.510
322898.876 3076044.170 2.521
322898.823 3076044.119 2.534
322898.739 3076044.096 2.545
322898.648 3076044.052 2.556
322898.593 3076044.016 2.561
322898.544 3076043.935 2.566
322898.507 3076043.845 2.570
322898.523 3076043.758 2.571
322898.582 3076043.686 2.572
322898.592 3076043.634 2.572
322898.544 3076043.601 2.574
322898.454 3076043.622 2.576
322898.299 3076043.603 2.579
322898.149 3076043.559 2.581
322898.031 3076043.495 2.580
322897.976 3076043.454 2.577
322897.963 3076043.405 2.575
322898.035 3076043.279 2.573
322897.980 3076043.334 2.572
322898.041 3076043.217 2.569
322897.977 3076043.150 2.555
322897.882 3076043.110 2.534
322897.777 3076043.111 2.512
322897.684 3076043.132 2.494
322897.639 3076043.094 2.477
322897.614 3076043.105 2.473
322897.633 3076043.017 2.460
322897.655 3076042.922 2.446
322897.603 3076042.827 2.409
322897.546 3076042.750 2.363
322897.399 3076042.671 2.257
322897.275 3076042.586 2.205
322897.154 3076042.523 2.190
322897.139 3076042.450 2.184
322897.156 3076042.382 2.181
322897.127 3076042.304 2.172
322897.003 3076042.219 2.146
322896.914 3076042.196 2.125
322896.908 3076042.163 2.118
322896.921 3076042.110 2.110
322896.843 3076041.922 2.033
322896.724 3076041.815 1.943
322896.608 3076041.742 1.893
322896.541 3076041.651 1.873
322896.462 3076041.514 1.852
322896.362 3076041.386 1.832
322896.212 3076041.281 1.807
322896.038 3076041.174 1.775
322895.916 3076041.129 1.760
322895.833 3076041.003 1.749
322895.828 3076040.921 1.745
322895.748 3076040.782 1.729
322895.632 3076040.662 1.702
322895.497 3076040.574 1.675
322895.347 3076040.507 1.657
322895.200 3076040.451 1.638
322895.123 3076040.370 1.621
322895.078 3076040.239 1.603
322895.064 3076040.121 1.590
322894.959 3076040.007 1.569
322894.841 3076039.904 1.554
322894.628 3076039.791 1.541
322894.468 3076039.634 1.537
322894.377 3076039.492 1.530
322894.318 3076039.350 1.523
322894.231 3076039.193 1.517
322894.099 3076039.043 1.516
322893.972 3076038.936 1.513
322893.825 3076038.799 1.510
322893.702 3076038.672 1.506
322893.637 3076038.541 1.499
322893.574 3076038.387 1.491
322893.558 3076038.250 1.485
322893.440 3076038.113 1.473
322893.298 3076037.997 1.460
322893.176 3076037.899 1.451
322893.078 3076037.811 1.444
322892.994 3076037.712 1.435
322892.895 3076037.567 1.420
322892.814 3076037.415 1.407
322892.683 3076037.270 1.394
322892.556 3076037.157 1.377
322892.398 3076037.010 1.357
322892.259 3076036.887 1.348
322892.183 3076036.755 1.341
322892.100 3076036.593 1.332
322892.047 3076036.456 1.327
322891.939 3076036.302 1.322
322891.806 3076036.198 1.309
322891.684 3076036.074 1.292
322891.526 3076035.952 1.280
322891.426 3076035.811 1.273
322891.371 3076035.668 1.267
322891.367 3076035.526 1.263
322891.261 3076035.348 1.257
322891.122 3076035.239 1.247
322890.971 3076035.091 1.226
322890.809 3076034.939 1.213
322890.718 3076034.803 1.207
322890.673 3076034.633 1.201
322890.629 3076034.480 1.196
322890.486 3076034.318 1.184
322890.311 3076034.187 1.167
322890.189 3076034.160 1.161
322890.043 3076034.057 1.151
322889.932 3076033.922 1.140
322889.818 3076033.778 1.129
322889.701 3076033.655 1.123
322889.574 3076033.564 1.112
322889.384 3076033.440 1.087
322889.232 3076033.329 1.072
322889.119 3076033.213 1.067
322889.047 3076033.090 1.065
322889.006 3076032.985 1.064
322888.870 3076032.854 1.066
322888.714 3076032.751 1.058
322888.515 3076032.641 1.038
322888.350 3076032.502 1.023
322888.254 3076032.367 1.010
322888.161 3076032.215 0.995
322888.071 3076032.079 0.987
322887.932 3076031.946 0.986
322887.771 3076031.846 0.977
322887.584 3076031.733 0.958
322887.422 3076031.602 0.945
322887.316 3076031.469 0.936
322887.223 3076031.322 0.928
322887.155 3076031.190 0.925
322887.048 3076031.082 0.923
322886.913 3076031.007 0.918
322886.752 3076030.901 0.906
322886.591 3076030.821 0.901
322886.469 3076030.714 0.899
322886.389 3076030.588 0.895
322886.347 3076030.472 0.892
322886.230 3076030.336 0.885
322886.074 3076030.231 0.870
322885.924 3076030.101 0.854
322885.770 3076029.985 0.848
322885.667 3076029.851 0.845
322885.593 3076029.705 0.841
322885.498 3076029.566 0.839
322885.358 3076029.432 0.836
322885.202 3076029.265 0.824
322885.058 3076029.135 0.817
322884.945 3076028.976 0.808
322884.854 3076028.801 0.801
322884.839 3076028.684 0.800
322884.732 3076028.520 0.798
322884.581 3076028.383 0.789
322884.433 3076028.254 0.778
322884.291 3076028.088 0.775
322884.228 3076027.930 0.775
322884.184 3076027.786 0.775
322884.124 3076027.622 0.775
322883.986 3076027.455 0.771
322883.856 3076027.294 0.759
322883.702 3076027.130 0.751
322883.585 3076026.967 0.744
322883.492 3076026.795 0.737
322883.488 3076026.679 0.735
322883.419 3076026.541 0.733
322883.309 3076026.436 0.730
322883.144 3076026.310 0.717
322882.998 3076026.209 0.707
322882.875 3076026.081 0.697
322882.821 3076025.938 0.689
322882.779 3076025.772 0.682
322882.754 3076025.641 0.676
322882.664 3076025.504 0.668
322882.532 3076025.351 0.653
322882.417 3076025.220 0.641
322882.305 3076025.061 0.634
322882.214 3076024.876 0.631
322882.165 3076024.728 0.633
322882.110 3076024.564 0.637
322882.000 3076024.447 0.639
322881.840 3076024.310 0.638
322881.675 3076024.195 0.644
322881.530 3076024.033 0.652
322881.425 3076023.861 0.658
322881.367 3076023.718 0.667
322881.250 3076023.579 0.677
322881.080 3076023.460 0.682
322880.925 3076023.369 0.687
322880.771 3076023.263 0.695
322880.637 3076023.135 0.704
322880.566 3076023.012 0.712
322880.464 3076022.885 0.723
322880.327 3076022.783 0.731
322880.158 3076022.666 0.734
322880.022 3076022.584 0.740
322879.886 3076022.464 0.747
322879.763 3076022.319 0.749
322879.696 3076022.195 0.751
322879.598 3076022.067 0.751
322879.462 3076021.981 0.745
322879.298 3076021.898 0.732
322879.166 3076021.835 0.721
322879.082 3076021.732 0.709
322879.042 3076021.609 0.697
322878.908 3076021.424 0.667
322878.742 3076021.280 0.635
322878.552 3076021.138 0.594
322878.383 3076021.037 0.573
322878.258 3076020.908 0.554
322878.156 3076020.766 0.526
322878.056 3076020.584 0.495
322877.918 3076020.427 0.475
322877.760 3076020.296 0.443
322877.577 3076020.169 0.408
322877.394 3076020.021 0.400
322877.272 3076019.888 0.394
322877.163 3076019.742 0.379
322877.033 3076019.580 0.365
322876.869 3076019.437 0.358
322876.652 3076019.309 0.330
322876.460 3076019.214 0.305
322876.280 3076019.085 0.292
322876.123 3076018.923 0.281
322876.031 3076018.804 0.276
322875.871 3076018.654 0.278
322875.687 3076018.555 0.272
322875.503 3076018.404 0.251
322875.318 3076018.272 0.247
322875.165 3076018.136 0.245
322875.038 3076017.992 0.238
322874.926 3076017.844 0.235
322874.771 3076017.711 0.232
322874.592 3076017.569 0.214
322874.416 3076017.433 0.197
322874.251 3076017.281 0.188
322874.117 3076017.116 0.175
322874.049 3076016.985 0.167
322873.926 3076016.833 0.161
322873.781 3076016.711 0.152
322873.644 3076016.567 0.138
322873.469 3076016.431 0.130
322873.318 3076016.275 0.125
322873.184 3076016.113 0.116
322873.104 3076015.976 0.113
322872.941 3076015.824 0.112
322872.772 3076015.702 0.098
322872.602 3076015.584 0.082
322872.423 3076015.445 0.073
322872.293 3076015.288 0.063
322872.203 3076015.152 0.055
322872.057 3076014.995 0.052
322871.887 3076014.878 0.048
322871.705 3076014.731 0.031
322871.528 3076014.619 0.023
322871.373 3076014.479 0.017
322871.237 3076014.317 0.009
322871.144 3076014.190 0.007
322870.984 3076014.034 0.010
322870.794 3076013.911 -0.003
322870.641 3076013.790 -0.018
322870.458 3076013.633 -0.026
322870.321 3076013.460 -0.034
322870.239 3076013.316 -0.040
322870.109 3076013.138 -0.040
322869.929 3076012.989 -0.043
322869.771 3076012.828 -0.053
322869.615 3076012.678 -0.058
322869.491 3076012.518 -0.066
322869.386 3076012.347 -0.074
322869.274 3076012.200 -0.074
322869.130 3076012.061 -0.077
322868.962 3076011.908 -0.091
322868.818 3076011.781 -0.096
322868.675 3076011.629 -0.094
322868.554 3076011.472 -0.099
322868.465 3076011.330 -0.105
322868.327 3076011.177 -0.110
322868.191 3076011.077 -0.117
322868.054 3076010.940 -0.128
322867.899 3076010.824 -0.134
322867.765 3076010.679 -0.136
322867.651 3076010.515 -0.142
322867.557 3076010.387 -0.143
322867.418 3076010.232 -0.142
322867.250 3076010.073 -0.150
322867.112 3076009.960 -0.158
322866.948 3076009.797 -0.167
322866.831 3076009.613 -0.178
322866.741 3076009.460 -0.185
322866.624 3076009.298 -0.184
322866.472 3076009.160 -0.187
322866.342 3076009.030 -0.197
322866.190 3076008.899 -0.207
322866.057 3076008.746 -0.216
322865.980 3076008.596 -0.225
322865.925 3076008.459 -0.232
322865.799 3076008.295 -0.237
322865.647 3076008.173 -0.247
322865.464 3076008.041 -0.265
322865.287 3076007.906 -0.275
322865.154 3076007.757 -0.287
322865.064 3076007.607 -0.300
322864.999 3076007.485 -0.307
322864.887 3076007.371 -0.313
322864.756 3076007.284 -0.322
322864.583 3076007.174 -0.336
322864.417 3076007.037 -0.348
322864.329 3076006.895 -0.355
322864.258 3076006.739 -0.362
322864.197 3076006.596 -0.366
322864.057 3076006.451 -0.369
322863.899 3076006.330 -0.381
322863.759 3076006.232 -0.394
322863.641 3076006.079 -0.408
322863.588 3076005.926 -0.418
322863.552 3076005.778 -0.425
322863.494 3076005.655 -0.431
322863.375 3076005.534 -0.436
322863.289 3076005.478 -0.439
322863.180 3076005.450 -0.448
322863.037 3076005.383 -0.462
322862.952 3076005.314 -0.468
322862.934 3076005.259 -0.470
322862.915 3076005.210 -0.471
322862.906 3076005.172 -0.472
322862.902 3076005.174 -0.472
322862.905 3076005.169 -0.472
322862.906 3076005.166 -0.472
322862.905 3076005.163 -0.472
